0.1079 0.9613 2.3665
0.1879 1.0113 2.4265
0.1579 0.9413 2.4265
-0.8521 0.8113 1.2965
-0.6721 0.9613 1.4265
-0.6521 0.6413 1.6165
-0.2721 1.1613 1.7865
-0.7621 0.2713 1.6865
0.4179 1.1913 2.5465
0.7579 1.1913 2.9565
1.2479 0.9313 3.6465
-1.4421 0.5713 0.6965
-0.7021 0.5513 1.5665
-0.3021 1.0913 1.7365
0.2479 0.9813 2.4265
-1.6321 1.0413 0.1965
-1.6021 0.8013 0.3565
-1.3621 0.6613 0.7065
-1.3821 0.5813 0.7265
-0.5521 0.9213 1.5065
-0.3221 1.2013 1.6165
-0.4821 0.8513 1.6165
0.5279 1.1313 2.6265
1.2279 0.9313 3.5365
1.3879 0.8113 3.7865
-0.7921 0.8413 1.2265
-0.5221 0.9513 1.4765
0.1579 0.8213 2.3265
0.4179 0.9313 2.5665
0.4779 0.9813 2.6165
1.0179 1.0013 3.2265
-1.2921 0.7713 0.6565
-1.2421 0.4513 0.8865
-0.8521 0.6513 1.2265
-0.3321 1.0113 1.6165
1.4379 0.7313 3.7565
-1.6121 0.7413 0.2265
-0.4321 0.8013 1.5465
0.2579 0.7213 2.3765
0.2979 0.7013 2.4365
0.5679 0.9013 2.6465
0.7079 0.9413 2.7765
0.9679 0.9013 3.0965
-1.1821 0.9613 0.5665
-1.1521 0.9513 0.6065
-0.6821 1.1713 1.0265
-0.8021 0.5213 1.2265
-0.5121 0.9013 1.3665
-0.8821 0.3313 1.2465
-0.4321 0.9313 1.4365
-0.3821 0.9413 1.4865
0.6279 0.9613 2.6365
-0.6321 1.2213 1.0065
-0.2921 1.0213 1.5065
-1.1121 0.9913 0.5565
-0.8421 0.1613 1.2865
-0.4021 0.6713 1.5265
-0.1821 0.6413 1.8065
0.4179 0.7113 2.4465
0.7179 0.7313 2.7765
-1.4421 1.0613 0.0965
-0.7621 0.6113 1.1165
-0.7321 0.4413 1.2465
-0.5221 0.3013 1.5365
-0.2021 0.5513 1.7865
0.6679 0.5913 2.7565
0.7479 0.6113 2.8365
-0.7521 0.9513 0.8965
-1.1521 0.3013 0.7865
0.6179 0.8013 2.5465
0.1779 -0.0987 2.5165
0.6279 0.4613 2.7365
0.8179 0.5413 2.9065
-1.1121 0.4913 0.6965
-1.0221 0.4313 0.8265
0.6279 0.7813 2.5265
0.5379 0.4613 2.5865
0.2279 -0.0387 2.5065
-0.9521 0.9313 0.5965
-1.1521 0.4313 0.6365
-1.0621 0.5213 0.6965
-0.3021 0.6013 1.5265
-0.4321 0.2513 1.5465
0.3279 0.2813 2.4065
-0.8621 0.9713 0.6365
-0.6821 0.6313 1.0265
-0.5821 0.6713 1.1165
-0.6721 0.4813 1.1165
0.1179 0.1813 2.1865
0.3179 -0.2487 2.6265
0.7779 0.4713 2.7365
0.8479 0.3213 2.8965
0.7879 0.0313 2.9865
-0.8921 0.8813 0.5765
0.5579 0.7313 2.3165
0.6279 0.5113 2.5065
0.3579 0.0313 2.4565
0.6779 0.4113 2.5965
0.7579 0.2113 2.7865
-1.1821 1.2313 -0.0135
-0.1221 0.5913 1.5365
0.1879 0.7913 1.7965
0.7179 0.3613 2.6265
1.1079 0.8113 2.8265
0.7379 0.1713 2.7465
-1.2421 1.1313 -0.0635
-1.1421 0.7713 0.2465
-0.3221 1.0813 1.0265
0.1679 0.7313 1.7665
0.4479 0.6413 2.1265
0.5379 0.6613 2.2265
0.3479 -0.0887 2.3965
0.6779 0.2113 2.6165
-1.0121 0.9113 0.2865
-0.8321 0.8613 0.5265
-0.3121 1.0213 1.0265
-0.3221 0.9613 1.0565
-0.3121 0.4513 1.3365
-0.3021 -0.1587 1.6665
0.3279 -0.0987 2.3465
1.1679 0.6613 2.9165
-1.1521 1.0813 0.0065
-1.1021 1.1413 0.0265
-1.1821 0.6413 0.2065
0.9879 0.6913 2.6465
1.0579 0.1313 3.0265
-1.6821 0.6513 -0.4035
-1.1821 0.9713 0.0065
-1.2021 0.8113 0.0565
-0.8621 0.7613 0.4765
-0.5921 0.0913 1.1365
-0.2921 0.4813 1.2765
-0.5921 -0.2787 1.3365
-0.1521 -0.1287 1.7565
0.5779 0.7313 2.1265
0.2779 0.1813 2.0765
0.3279 0.1313 2.1665
0.7179 0.6313 2.3465
0.7179 0.6013 2.3665
0.5979 0.1813 2.4365
-1.5021 0.8713 -0.3535
-1.1121 1.0313 0.0165
-1.1621 0.5713 0.2065
-0.7421 0.8713 0.5265
-0.7621 0.3913 0.7565
0.2279 0.1013 2.0365
0.3279 -0.0287 2.2165
0.9279 -0.0487 2.9065
1.7179 0.1013 3.7265
-0.8421 0.3513 0.6465
-0.5121 0.1613 1.1265
-0.6321 -0.1287 1.1365
-0.8521 0.9713 0.2765
-0.7321 0.5113 0.6665
0.0579 0.4113 1.6065
0.4779 0.5913 1.9865
0.5579 0.5213 2.1065
1.0379 -0.0287 2.9465
1.1079 -0.0687 3.0565
1.5579 -0.1087 3.5865
-0.5021 0.9913 0.6265
-0.7621 0.4513 0.6265
-0.0521 0.5313 1.3865
0.3479 -0.1587 2.2065
1.0479 -0.2287 3.0365
1.5479 0.0113 3.4665
1.5779 0.0013 3.5265
-1.8021 0.5913 -0.6735
-0.8921 0.9613 0.1565
-0.5921 0.4613 0.7665
-0.2121 0.7813 1.0265
-0.2021 0.7713 1.0465
0.1179 0.7713 1.4165
-0.0521 0.4913 1.3665
0.2079 -0.2787 2.0765
0.4079 -0.1487 2.2265
-0.6521 0.9913 0.3765
-0.2021 0.6913 1.0365
0.0679 0.6213 1.3965
-0.0521 0.3413 1.4065
0.2979 0.5913 1.6765
0.4779 0.6113 1.8565
0.4479 0.4313 1.9265
0.2079 -0.0587 1.9065
0.3479 -0.4487 2.2865
1.5879 -0.0087 3.4565
-1.5021 0.7813 -0.5135
-0.4921 0.9213 0.5465
-0.7421 0.4513 0.5165
-0.3721 0.1513 1.0965
0.2679 0.5213 1.6265
0.1279 0.0613 1.7265
0.2079 -0.1887 1.9365
0.9279 0.2113 2.5465
-1.1521 1.3913 -0.4935
-1.0421 1.0513 -0.1935
-1.0321 0.7213 -0.0035
-0.6021 0.9213 0.3865
-0.4621 0.8913 0.5465
0.1079 -0.0187 1.6865
0.5579 0.4713 1.9365
1.1779 -0.2287 3.0165
1.3279 -0.3087 3.2265
1.3679 -0.2787 3.2565
-0.8921 1.1413 -0.1235
-0.9521 0.7613 0.0265
-0.4521 -0.0087 1.0065
0.2779 0.8013 1.3965
-0.0021 0.3413 1.3265
0.4279 0.5913 1.6765
0.5579 0.6413 1.8065
0.8379 -0.0587 2.4865
-0.6421 0.7213 0.3365
-0.5921 0.3313 0.6165
-0.4521 0.2313 0.8265
-0.5521 0.0313 0.8165
-0.1421 0.5513 1.0065
-0.3321 0.1113 1.0265
-0.3021 0.1313 1.0565
0.0079 0.2413 1.3365
0.8979 0.0013 2.4865
-1.4621 -0.1587 -0.1535
-0.6621 0.6513 0.3165
-0.5621 0.1113 0.7265
-0.6621 -0.0887 0.7165
-0.2021 0.1813 1.0965
0.1079 0.3213 1.3665
0.5979 0.5513 1.8065
0.3279 -0.0687 1.8365
0.4579 -0.0587 1.9765
1.3579 0.5113 2.6865
1.4379 -0.1587 3.1365
1.6879 -0.1687 3.4265
-1.3121 0.8713 -0.5735
-1.1321 0.3313 -0.0735
-1.4621 -0.2387 -0.1535
-0.7421 -0.1287 0.6065
-0.4421 0.2713 0.7265
-0.4821 0.0313 0.8265
-0.2621 0.1013 1.0265
0.5479 0.8713 1.5265
0.6279 0.1313 2.0265
1.4079 0.5313 2.6865
0.9479 -0.1187 2.5165
0.8279 -0.4687 2.5665
1.2179 -0.2087 2.8665
-1.9921 0.6913 -1.2935
-1.5921 0.8013 -0.8935
-0.5121 0.5813 0.4465
-0.6021 0.0713 0.6065
-0.6921 -0.1087 0.6165
-0.4721 0.1613 0.7165
-0.3421 -0.0887 0.9965
-0.0621 0.2513 1.1365
0.8079 0.7013 1.8765
0.4579 0.1813 1.7565
0.8879 -0.4487 2.5865
-1.5621 0.7613 -0.8835
-1.2421 0.5413 -0.3935
-1.1721 0.2613 -0.1635
-0.5221 0.0113 0.7065
-0.4621 0.0713 0.7365
0.7279 0.1513 2.0365
1.1779 0.3413 2.4465
1.7979 -0.1587 3.4165
-1.7021 0.8813 -1.1435
-1.6221 0.6413 -0.9135
-1.5821 0.6413 -0.8735
-1.4021 -0.0587 -0.2935
-0.9721 0.3313 -0.0135
-0.5121 0.6313 0.3465
-0.2221 0.1613 0.9265
0.0579 0.2913 1.1665
0.4479 0.7713 1.3565
0.4979 -0.1087 1.8865
0.5679 -0.0387 1.9265
0.6979 -0.3787 2.2465
-1.2021 0.4913 -0.3935
-1.1621 0.5213 -0.3735
-0.0721 0.9013 0.6665
-0.5921 -0.0387 0.5765
0.0679 0.2313 1.1865
0.5479 0.5613 1.5365
0.7779 0.6713 1.7465
0.4279 -0.0087 1.7165
0.4679 0.0113 1.7465
0.5079 -0.0387 1.8265
-0.5221 0.7613 0.1865
-0.4021 0.6013 0.4065
-0.4821 0.4413 0.3965
-0.8721 -0.2387 0.3265
-0.4521 0.2013 0.5665
0.5579 0.7113 1.4365
0.9579 1.0513 1.7065
1.0379 1.0513 1.7965
0.4379 0.0413 1.6565
0.7179 0.1213 1.9265
-0.9821 0.3713 -0.1535
-1.0221 -0.3787 0.1965
0.5479 0.8313 1.3165
0.9479 0.5613 1.9065
1.1179 0.1213 2.3365
-0.7621 0.0413 0.2265
-0.4221 -0.0287 0.6465
-0.4521 -0.1987 0.7065
0.6179 0.6913 1.4365
0.7279 0.6413 1.5865
0.6679 0.1213 1.8065
1.5079 -0.5487 3.1065
1.8679 -0.1887 3.3165
-1.3521 0.3713 -0.6435
-1.2621 0.4713 -0.5935
-0.8121 0.3513 -0.0335
-0.4621 0.4513 0.3165
-0.8421 -0.4487 0.3665
-0.6421 -0.2587 0.4865
-0.1021 0.1713 0.8665
0.9579 0.5413 1.8665
0.6179 0.0013 1.7665
1.0379 -0.1387 2.3165
-0.6721 0.4713 0.0265
-0.3921 0.5513 0.3065
0.0279 0.2713 0.9265
0.3079 0.2213 1.2665
0.9479 -0.1587 2.1965
1.5979 -0.1987 2.9365
1.4579 -0.6287 3.0165
-1.0421 0.6413 -0.5135
-0.3721 0.6613 0.2265
-0.4421 0.2613 0.3665
-0.2021 -0.2187 0.8865
0.4879 0.3413 1.3665
1.0179 0.2413 2.0165
-1.1221 1.2313 -0.9635
-0.5321 0.5913 0.0565
-0.3521 -0.2687 0.7165
0.1779 0.2613 1.0265
0.5679 0.6013 1.2765
1.1079 0.2513 2.0765
2.0079 0.0913 3.1865
-1.2321 0.4313 -0.6835
-0.7621 0.4313 -0.1635
-0.4421 0.6913 0.0665
-0.6621 0.1313 0.1165
-0.1621 0.8013 0.3165
-0.2721 -0.0587 0.6565
-0.1821 -0.2787 0.8765
-0.2121 -0.3387 0.8865
0.7779 0.7613 1.4065
0.6379 0.0713 1.6165
1.1679 -0.4787 2.5065
1.5479 -0.4587 2.9165
2.1279 0.1313 3.2465
1.9579 -0.1487 3.2165
0.1879 0.1813 1.0165
0.6379 0.7213 1.2265
0.6379 0.3713 1.4165
0.4779 0.1013 1.3865
0.5379 0.1613 1.4265
0.8279 -0.5687 2.1365
0.8479 -0.6287 2.1865
1.4879 -0.4987 2.8365
-0.6221 0.9613 -0.3535
-0.3221 0.6913 0.1365
-0.1221 0.1913 0.6265
0.1379 0.1513 0.9365
0.4079 0.3313 1.1465
0.6879 0.1813 1.5365
0.6979 0.0713 1.6165
0.8479 0.0213 1.8165
0.7379 -0.1587 1.7865
1.0279 0.0413 1.9965
0.7579 -0.6187 2.0565
0.7979 -0.8587 2.2265
1.2479 -0.4687 2.5165
1.5679 -0.3287 2.8065
-1.2421 0.4413 -0.7935
-0.6721 0.8513 -0.3735
-0.5821 0.1413 0.1065
-0.5421 -0.2487 0.3665
-0.4821 -0.4287 0.5265
0.5479 0.8213 1.0065
0.1179 -0.0487 0.9865
0.3179 0.1413 1.1165
-0.6421 0.4313 -0.1535
-0.6721 -0.6487 0.4065
0.6379 0.4813 1.2665
0.7379 0.5613 1.3265
0.8579 -0.2587 1.9065
1.5479 -0.3587 2.7365
2.0879 0.1013 3.0965
1.7079 -0.4087 2.9365
-1.0921 0.4813 -0.7035
-0.7521 0.7713 -0.4835
-0.6321 -0.2787 0.2165
-0.6321 -0.3387 0.2465
-0.5721 -0.3287 0.3165
0.3379 -0.2187 1.2765
0.6979 0.2413 1.4365
0.9379 0.0613 1.7965
-0.0421 0.1513 0.6165
0.3479 -0.0187 1.1465
0.3879 0.0013 1.1865
0.9079 0.6213 1.4265
1.1979 -0.0287 2.1065
1.7079 -0.2687 2.8065
2.0679 0.1313 2.9965
-1.0621 0.6213 -0.8035
-1.0321 -0.1787 -0.3335
-0.4421 -0.3187 0.3965
-0.4921 -0.4387 0.4165
-0.0521 0.0713 0.6265
0.2179 0.0813 0.9265
0.1079 -0.3987 1.0465
0.5579 0.0213 1.3265
0.6379 -0.1887 1.5365
1.1279 0.3513 1.7965
0.9879 -0.1187 1.8865
1.7979 -0.4087 2.9565
2.2279 -0.0187 3.2265
-1.0221 0.7913 -0.8735
-1.0721 0.6813 -0.8735
-0.6621 0.7513 -0.4535
-0.7021 0.0613 -0.1335
-0.2921 0.2513 0.2265
-0.2521 -0.2287 0.5265
0.2379 0.1613 0.8665
0.5679 0.4513 1.0865
0.5179 0.3513 1.0865
0.8879 0.8513 1.2265
0.6379 -0.2487 1.5365
0.7579 -0.1887 1.6365
0.7379 -0.3987 1.7365
1.0979 -0.0087 1.9265
0.9579 -0.2687 1.9065
1.5279 -0.2887 2.5565
1.8379 -0.1687 2.8365
-1.0021 1.2313 -1.1235
-0.5621 0.9513 -0.4735
-1.2321 -0.3987 -0.5035
-1.0521 -0.2387 -0.3835
-0.3521 0.3313 0.0965
-0.6121 -0.4987 0.2465
0.1779 0.0013 0.8665
0.8079 0.2413 1.4365
0.7779 0.1713 1.4465
0.8579 0.2613 1.4865
1.0579 -0.2187 1.9665
0.8479 -0.8087 2.0465
2.3879 0.0413 3.3065
-0.8621 1.3513 -1.0535
-1.0421 0.7913 -0.9535
-0.9321 0.5413 -0.7035
-0.8921 0.5913 -0.6735
-0.9621 0.2213 -0.5635
-0.8721 0.2613 -0.4735
-0.2821 0.5913 0.0065
-0.3721 0.2213 0.1065
-0.1721 0.1513 0.3665
-0.3421 -0.1687 0.3465
-0.8521 -1.1487 0.2965
0.2079 -0.1387 0.9365
0.6979 0.3513 1.2265
0.9079 0.1913 1.5465
0.9379 0.1913 1.5765
0.9579 -0.1687 1.7965
0.9679 -0.2587 1.8565
1.5379 -0.3287 2.5365
1.8679 -0.0487 2.7465
1.9079 -0.4687 3.0165
-1.3821 0.9513 -1.4535
-1.2321 0.7213 -1.1535
-1.1721 0.7913 -1.1335
-0.6721 0.7013 -0.5135
-0.5921 -0.4087 0.1565
0.4379 0.7113 0.7065
0.8379 -0.1787 1.6365
1.2479 0.3513 1.8065
0.9179 -0.3687 1.8365
2.4979 0.0213 3.3865
-0.4621 0.8413 -0.3935
-1.0821 -0.3387 -0.4635
0.4179 0.8713 0.5665
0.1779 0.0513 0.7465
0.6179 0.5513 0.9665
0.9279 -0.4087 1.8265
1.6279 -0.3087 2.5565
2.5479 -0.0187 3.4265
-1.3621 1.3113 -1.6835
-1.3221 1.2813 -1.6235
-1.0121 1.4213 -1.3535
-0.5221 0.7713 -0.4635
-0.3921 0.0313 0.0865
0.4779 0.1013 1.0165
0.7379 -0.1387 1.4365
0.9179 -0.1687 1.6565
1.0079 -0.2087 1.7765
1.3879 0.1213 2.0365
1.9979 -0.5287 3.0565
-1.2921 1.3613 -1.6735
-1.3321 1.0113 -1.5335
-1.3021 0.9713 -1.4735
-1.0421 0.4213 -0.8935
-0.2721 0.5013 -0.0735
-0.6721 -0.6487 0.1065
-0.2921 -0.0887 0.2265
0.0779 -0.1787 0.6865
0.0679 -0.3787 0.7865
0.8279 -0.0187 1.4465
0.8579 -0.2687 1.6065
0.8879 -0.2387 1.6365
1.4079 -0.1787 2.1765
1.2379 -0.5987 2.2165
1.6979 -0.2087 2.5265
1.7879 -0.1287 2.5765
-0.9421 1.6413 -1.4635
-1.1921 0.9713 -1.3935
-1.0021 0.7713 -1.0735
-1.0621 0.4613 -0.9635
-0.9121 0.4613 -0.8035
-0.5221 0.8513 -0.5735
-0.2721 0.1413 0.0865
-0.2321 -0.2287 0.3365
0.5379 0.8313 0.6265
0.1679 0.0613 0.6265
0.0279 -0.3687 0.7065
0.1579 -0.4587 0.8965
1.1879 0.7513 1.3965
1.0779 0.5613 1.3765
1.2279 0.3113 1.6865
1.0679 -0.0787 1.7065
1.1079 -0.5487 2.0165
1.7679 -0.1287 2.5165
1.8179 -0.2387 2.6365
0.1379 0.8413 0.1365
0.0479 0.2313 0.3665
0.4779 0.7013 0.5865
0.1279 0.1313 0.5065
0.9879 0.6313 1.2065
1.1279 0.5413 1.4165
1.7379 -0.4287 2.6165
1.8679 -0.3487 2.7165
1.9079 -0.5487 2.8665
1.9679 -0.4987 2.9065
-0.9621 1.6013 -1.5535
-1.0521 0.3513 -0.9735
-0.4521 0.3113 -0.2735
-0.3621 0.4313 -0.2335
-0.2621 0.5313 -0.1735
0.2279 -0.3787 0.8565
1.2579 -0.2287 1.9365
1.4579 -0.0487 2.0565
1.3679 -0.7787 2.3565
1.8779 -0.4187 2.7265
-1.1621 1.0613 -1.5135
-1.0621 1.0313 -1.3935
-0.9721 0.4113 -0.9435
-0.5921 0.6013 -0.6235
-0.4821 0.4413 -0.4135
-0.1521 0.6513 -0.1635
1.3479 0.8513 1.4065
1.1279 -0.5887 1.9565
1.4479 -0.2787 2.1365
1.5379 -0.2387 2.2165
1.9079 -0.2587 2.6465
-1.3521 0.9413 -1.6935
-0.8421 0.4813 -0.8835
-0.5721 0.6613 -0.6735
-0.4421 0.4913 -0.4335
-0.0721 0.6613 -0.1135
0.2779 0.6113 0.3065
0.7079 0.5113 0.8365
0.4679 0.0613 0.8065
0.5579 0.1513 0.8665
1.3279 0.8913 1.3265
0.9579 -0.1087 1.4565
1.4979 -0.5687 2.3065
1.5279 -0.6687 2.3965
1.5379 -0.7387 2.4465
1.6979 -0.7287 2.6165
2.0279 -0.5187 2.8765
2.2279 -0.5987 3.1465
-1.2321 1.0213 -1.6535
-1.0321 1.1313 -1.4835
-0.4621 0.7513 -0.6435
-0.1021 0.5513 -0.1235
0.3779 0.5513 0.4065
0.2779 -0.1287 0.6665
0.9479 0.1313 1.2765
1.4379 0.5113 1.6165
1.2279 -0.2687 1.8065
1.6179 -0.3387 2.2765
1.7579 -0.6187 2.5965
-0.4821 0.1413 -0.3835
-0.5021 0.0913 -0.3635
0.2279 0.6013 0.1765
0.5979 0.7513 0.5065
0.4379 -0.0887 0.7765
0.9179 0.0413 1.2465
1.1879 -0.5087 1.8465
1.4479 -0.2387 1.9965
1.0579 -0.8787 1.9065
1.8979 -0.3587 2.5565
-1.0821 0.6313 -1.3635
-0.8621 0.1013 -0.8235
-0.3021 0.1813 -0.2435
-0.4621 -0.4187 -0.0935
0.2379 -0.1487 0.5365
0.5179 -0.0787 0.8165
0.9179 -0.0087 1.2265
0.7879 -0.3587 1.2765
0.8679 -0.2687 1.3165
1.2579 -0.3487 1.7965
1.3279 -0.3987 1.8965
1.4279 -0.3687 1.9965
1.1579 -0.7887 1.9265
1.5379 -0.3287 2.1065
2.0479 -0.1387 2.5665
-1.0721 0.5913 -1.3735
-0.4621 0.8013 -0.8135
-0.4521 0.7813 -0.7935
-0.4221 0.3713 -0.5335
-0.3221 -0.3987 0.0065
0.4679 -0.1087 0.7365
0.9179 0.2913 1.0165
0.9279 -0.2487 1.3165
1.2479 -0.7187 1.9365
1.8379 -0.9587 2.7265
-1.1721 0.4913 -1.4835
-0.5521 0.9813 -1.0535
-0.7121 0.1713 -0.7935
-0.3421 0.4213 -0.5235
0.0579 0.1913 0.0465
0.1479 -0.2987 0.4265
0.4079 0.0013 0.5465
0.2979 -0.3587 0.6265
0.5579 -0.1687 0.8165
1.0879 0.3613 1.1065
1.3579 0.4613 1.3665
0.9979 -0.2487 1.3465
1.0379 -0.2187 1.3765
1.3079 -0.4387 1.8065
1.4979 -0.3187 1.9465
1.5879 -0.2287 1.9965
1.1479 -0.9587 1.9065
2.1379 -0.3887 2.6965
2.2279 -1.2387 3.2565
-0.9421 0.7313 -1.4135
-0.4721 0.9713 -1.0235
-0.7421 0.1713 -0.8835
-0.0621 0.2313 -0.1535
0.7379 0.1413 0.7865
1.0379 0.2013 1.0965
0.9779 -0.1487 1.2165
1.2879 -0.3187 1.6465
1.2579 -0.5887 1.7865
1.1279 -1.0187 1.8665
1.6179 -0.4787 2.1165
1.9679 -0.9887 2.7865
-0.8821 0.8013 -1.4335
-0.7021 0.8913 -1.2835
-0.7721 0.0513 -0.8935
-0.5921 0.2513 -0.8135
-0.2121 0.3513 -0.4335
0.1579 -0.5887 0.4965
0.7379 0.0413 0.7965
1.0179 0.2713 0.9765
0.8679 -0.4587 1.2065
1.7179 -0.5387 2.2165
2.1879 -0.4987 2.7165
2.1179 -1.0787 2.9565
-0.1521 0.7313 -0.6335
0.1479 1.1313 -0.5135
-0.0721 -0.5387 0.1565
0.5679 0.0113 0.5765
0.6879 -0.1587 0.8065
0.9279 -0.4087 1.2065
0.9679 -0.3787 1.2465
1.2679 -0.3087 1.5265
1.7179 -0.2587 2.0065
1.1779 -1.1087 1.8765
2.2679 -0.5787 2.8065
-0.6921 1.7013 -1.8035
0.1679 -0.2687 0.2465
0.7879 0.3713 0.5765
0.5179 -0.2387 0.6165
1.0779 0.0913 1.0565
1.3679 -0.2187 1.5565
1.2479 -1.0687 1.8865
-0.8021 0.8213 -1.4835
-0.3821 0.7513 -0.9735
0.4379 0.5413 0.0565
0.1079 -0.1187 0.0465
0.7579 0.3513 0.5265
0.6879 0.0613 0.6065
0.6279 -0.3587 0.7765
1.2079 -0.3287 1.4065
1.5579 -0.4187 1.8365
1.8479 -0.0987 1.9965
-0.1721 0.7213 -0.7535
0.2079 1.1313 -0.5535
0.1379 -0.9087 0.4965
1.8579 0.3313 1.7365
1.5279 -0.5587 1.8465
1.4079 -0.9287 1.9265
1.7979 -0.7087 2.2465
-0.1621 0.0713 -0.4035
-0.0121 -0.0187 -0.1835
0.0179 -0.5287 0.1265
0.6479 -0.2287 0.6665
0.6579 -0.2687 0.7065
0.7779 -0.3487 0.8865
1.7579 -0.5787 2.0965
-0.6421 1.2513 -1.6235
-0.4121 0.9713 -1.2035
1.6679 -0.4787 1.9265
1.9279 -1.0487 2.5365
-0.3121 1.0713 -1.1635
-0.4321 0.7713 -1.1335
0.2379 1.4313 -0.7435
0.3179 1.1513 -0.4935
-0.1221 -0.6287 -0.0135
0.2779 -0.0287 0.1065
0.0379 -0.6487 0.1865
0.2479 -0.8587 0.5265
0.6479 -0.6787 0.8765
0.5079 -0.9687 0.8765
1.3879 -1.1187 1.9465
1.7379 -0.6787 2.0965
-0.8421 1.0613 -1.7735
-1.1421 0.1913 -1.6235
-0.0721 -0.5187 -0.0435
-0.0621 -0.7787 0.1165
0.2979 -0.6487 0.4565
0.7379 -0.2287 0.7065
0.7379 -0.4587 0.8365
0.7179 -0.5587 0.8665
0.6179 -0.8587 0.9265
1.2179 -0.3187 1.2965
1.4079 -1.0587 1.9165
-1.0621 0.2313 -1.5735
-0.2621 0.7513 -0.9735
-0.1721 0.8213 -0.9035
-0.0621 0.8613 -0.8135
-0.2221 0.3713 -0.7135
0.2979 1.1213 -0.5435
-0.0721 0.1413 -0.4135
0.6379 0.4513 0.2065
0.3179 -0.2087 0.2065
0.7679 0.3413 0.4065
0.3679 -0.3887 0.3665
0.7979 0.0513 0.5965
0.4579 -0.8187 0.6965
1.4079 -0.9787 1.8565
1.9279 -0.8387 2.3565
-0.3121 1.4613 -1.4335
0.2379 1.0513 -0.5935
0.4179 1.1113 -0.4135
-0.0921 0.1013 -0.4435
0.1379 -0.8187 0.3265
0.6879 -0.1087 0.5465
0.7579 -0.0587 0.5965
0.8179 -0.1487 0.7165
1.2079 -0.3287 1.2465
-0.9321 0.6713 -1.7135
0.2779 -0.2287 0.1465
0.5579 -0.3887 0.5365
0.2879 -0.8187 0.4765
0.4179 -0.9787 0.7065
1.8279 0.3913 1.5265
1.8579 -0.4587 2.0365
1.5079 -1.1087 1.9965
1.9279 -0.6287 2.1965
1.5479 -1.3687 2.1865
-0.7521 1.1513 -1.7935
-0.0821 0.8413 -0.8735
0.3579 0.7613 -0.3335
-0.2821 -0.3787 -0.4235
0.0779 -0.1187 -0.1635
0.1679 -0.1087 -0.0735
0.1379 -0.6587 0.1965
0.4579 -0.2487 0.3265
0.5379 -0.4387 0.5265
1.2179 0.3913 0.8265
0.8479 -0.3587 0.8265
1.1679 -0.2787 1.1365
-0.5421 0.9413 -1.4635
-0.4921 1.0113 -1.4335
-0.1521 0.8413 -0.9735
-0.1321 0.7413 -0.8935
-0.0521 0.4613 -0.6535
0.2579 -0.3587 0.1465
0.5179 -0.1687 0.3365
0.5179 -0.3187 0.4165
1.2579 0.1613 0.9765
0.6479 -0.9487 0.9065
1.0879 -0.5987 1.2065
1.8779 0.2213 1.6365
1.7279 -0.4487 1.8365
1.6379 -0.6587 1.8565
1.5879 -0.8587 1.9165
1.5079 -1.2387 2.0365
1.9379 -0.8187 2.2765
2.0379 -1.0587 2.5165
-0.4921 1.5713 -1.7735
-0.5521 1.2813 -1.6835
-0.5521 0.2313 -1.1135
0.6079 -0.3687 0.5165
1.2279 0.0513 0.9865
0.7579 -0.8587 0.9665
1.4479 -0.1587 1.3465
1.6379 -1.0287 2.0365
1.5279 -1.3187 2.0665
-0.4821 1.2913 -1.6235
-0.5921 0.1013 -1.1035
0.2579 0.6913 -0.4735
0.2979 0.7313 -0.4535
0.4679 0.5413 -0.1535
0.2379 -0.5687 0.2065
1.4579 -0.2587 1.3865
1.8579 -0.4587 1.9465
-0.4521 1.3413 -1.6435
-0.3721 1.4513 -1.6235
-0.1821 0.4813 -0.8835
0.3979 1.1113 -0.5735
0.4079 1.0013 -0.5035
0.1379 0.0913 -0.2935
1.1479 -0.4187 1.1065
1.0679 -1.1787 1.4365
1.8479 -0.5387 1.9465
-0.7821 0.6913 -1.6835
-0.4621 0.9613 -1.4835
0.2179 1.3213 -0.9235
0.3779 1.1413 -0.6435
0.4079 -0.9787 0.5465
0.8579 -0.6287 0.8565
1.0879 -0.4087 0.9965
1.0479 -1.2487 1.4165
1.0079 -1.3287 1.4165
2.2279 -0.2987 2.2165
-0.5221 1.3313 -1.7835
-0.6521 0.8113 -1.6435
0.1479 -0.1387 -0.2335
2.1179 -0.5887 2.2265
-0.5121 1.2813 -1.7735
-0.4521 0.9413 -1.5235
-0.5421 0.4113 -1.3335
0.0379 0.4413 -0.6935
0.2079 0.5513 -0.5735
0.5279 -0.3087 0.2565
0.5379 -0.3687 0.2965
0.4979 -0.4487 0.2965
0.0379 -1.1787 0.1965
0.4379 -1.0787 0.5865
0.6979 -0.7287 0.6765
0.7779 -0.7787 0.7965
1.0979 -0.5387 1.0265
1.8579 -0.5487 1.8665
2.1779 -1.1687 2.5665
-0.5721 1.3513 -1.9135
-0.2721 0.6813 -1.2035
-0.1121 0.8613 -1.1335
-0.4721 -0.7287 -0.6635
-0.0521 -0.2387 -0.4535
1.3179 1.1713 0.2965
1.9379 -0.5187 1.9165
1.8079 -1.0587 2.0665
2.2279 -1.1587 2.5865
2.1979 -1.2187 2.5865
-0.6221 0.6613 -1.6235
-1.0321 -0.2487 -1.5835
-0.1821 0.6913 -1.1435
-0.3221 -0.6487 -0.5735
0.1979 -0.5787 -0.0235
0.3579 -1.4187 0.6065
1.1479 -0.4087 0.9365
1.8779 -0.6687 1.8965
1.8979 -0.6687 1.9265
-0.5621 1.2313 -1.9135
0.8679 0.5613 0.0565
0.1979 -0.6787 -0.0135
0.2179 -0.7387 0.0465
0.5179 -0.9687 0.5065
0.8379 -0.5387 0.6365
1.2879 -0.3587 1.0265
1.9679 0.3613 1.3965
-0.5521 1.1613 -1.8935
-0.8021 0.6413 -1.8835
-0.8321 0.1613 -1.6535
-0.8521 0.0813 -1.6335
-0.4021 0.4413 -1.3235
0.5479 0.4513 -0.2735
0.9079 0.7013 -0.0135
0.6779 -0.2787 0.2665
0.7379 -0.5887 0.5065
0.3979 -1.1287 0.4265
0.4579 -1.1587 0.5065
0.4779 -1.3187 0.6165
1.2379 -0.4687 0.9965
1.3679 -1.0487 1.4665
2.4679 -0.4287 2.3465
-0.8221 0.5313 -1.8735
-0.7521 0.1813 -1.6235
-0.4421 0.3613 -1.3635
0.1179 0.8713 -1.0235
1.3879 1.2413 0.1965
1.3679 1.1713 0.2165
1.0979 0.3413 0.3665
0.6279 -1.0887 0.6265
0.5379 -1.2387 0.6065
2.4179 -0.5287 2.3165
-0.6821 0.2713 -1.6135
0.8479 -0.6287 0.5865
-0.4621 0.8113 -1.6935
-0.5221 0.4313 -1.5535
-0.1321 0.6613 -1.2535
0.3179 1.3513 -1.1335
0.2479 0.1713 -0.5635
0.7779 -0.7387 0.5365
0.4479 -1.5287 0.6065
0.7379 -1.3687 0.8365
-0.4721 0.4413 -1.5435
0.7379 -1.0187 0.6165
-0.3221 -0.1687 -1.0735
0.7479 -0.1687 0.1265
0.6779 -0.3187 0.1265
1.2579 0.1113 0.5265
0.6379 -1.0487 0.4865
1.1979 -0.8287 0.9965
1.1179 -1.4787 1.2565
1.3879 -1.6287 1.6465
2.0579 -1.3987 2.2665
2.0779 -1.4287 2.2965
-0.8721 0.1213 -1.8835
-0.7121 -0.0487 -1.6135
-0.7621 -0.1887 -1.5835
-0.4321 0.3013 -1.4835
0.3879 0.3513 -0.6035
0.7279 0.1813 -0.1335
0.6779 -0.2987 0.0765
0.7179 -0.6287 0.3065
0.2679 -1.6287 0.3665
1.1879 -0.9087 0.9865
-0.1021 0.2713 -1.1435
-0.0521 -0.5187 -0.6535
0.4079 -1.5087 0.4065
1.5379 -0.3387 1.0265
1.8679 -0.2387 1.3465
2.2579 0.2413 1.5065
1.8279 -0.4187 1.3965
1.4179 -1.6387 1.6165
-0.3821 0.6313 -1.6835
-0.4821 0.4113 -1.6735
-0.5221 0.3113 -1.6635
1.1479 0.4513 0.1265
0.7479 -0.2387 0.0565
2.3379 -0.8587 2.1765
0.0179 0.6913 -1.3035
0.1679 0.8213 -1.2135
0.9779 0.9913 -0.4035
1.5479 1.0513 0.1965
0.6479 -1.1587 0.4165
0.3979 -1.6087 0.3865
0.6279 -1.3587 0.5065
0.5979 -1.4587 0.5265
1.1279 -1.0987 0.9265
1.5779 -0.8387 1.2765
-1.1221 -0.4387 -1.9935
1.2379 0.8513 -0.0735
0.3279 -1.6087 0.2765
0.2979 -1.7087 0.2965
0.6979 -1.2187 0.4765
0.7179 -1.2487 0.5165
0.7079 -1.3287 0.5365
0.9379 -1.0787 0.6465
1.2379 -1.0087 0.9565
1.4379 -1.6487 1.5365
2.3779 -0.9187 2.1765
2.6479 -0.6887 2.3465
-0.8721 -0.2987 -1.8335
-0.3021 0.5413 -1.6635
-0.6521 -0.3587 -1.5535
0.7879 -0.3287 0.0365
1.5879 -0.4487 0.9965
1.1279 -1.2887 0.9465
1.5079 -0.8587 1.1365
1.1979 -1.4687 1.1265
1.4179 -1.5187 1.3965
1.4879 -1.7287 1.5865
1.4779 -1.7587 1.6065
2.6979 -0.6787 2.3565
-0.8721 -0.2287 -1.9135
-0.8121 -0.1587 -1.8835
-0.6321 -0.0287 -1.7535
-0.8221 -1.0587 -1.3935
0.5379 -1.7487 0.5065
1.4279 -0.5587 0.8365
2.3779 0.2013 1.4665
2.3679 0.1513 1.4865
0.6379 0.3913 -0.6135
0.3179 -1.8487 0.2765
0.8079 -1.2787 0.5065
1.2779 -1.1087 0.9365
-1.1821 -0.8987 -1.9535
-0.3621 -0.3787 -1.3335
-0.3221 -0.6487 -1.1435
-0.2221 -0.5387 -1.0935
0.6179 0.3013 -0.6235
0.5479 -1.0087 0.0265
1.0479 -1.1687 0.6765
1.8479 -0.4187 1.1565
1.5879 -0.9987 1.1865
-0.8521 -0.3687 -1.9235
-0.7521 -0.2387 -1.8735
-0.5421 -0.1587 -1.6935
0.0379 0.3113 -1.3135
0.6479 -0.3587 -0.2635
0.1679 -1.3787 -0.2235
0.5279 -1.0187 -0.0235
0.6479 -1.0387 0.1165
0.1179 -2.2487 0.2065
0.5479 -1.6487 0.3465
0.4379 -1.9087 0.3765
1.1879 -1.0687 0.7365
1.9979 -0.3787 1.2465
1.4079 -1.6287 1.2965
1.4779 -1.8387 1.4865
-0.6921 -0.2287 -1.8535
-0.7121 -0.3287 -1.8235
-0.6321 -0.2787 -1.7635
0.5679 -0.9487 -0.0535
0.8579 -1.4587 0.5565
0.9879 -1.3187 0.6265
1.5079 -1.5287 1.3265
1.5679 -1.5087 1.3765
1.5379 -1.8187 1.5265
-0.6721 -0.6087 -1.6535
-0.1921 0.1413 -1.5435
0.7379 0.4513 -0.6735
0.5979 -0.5687 -0.2635
0.1579 -1.3587 -0.3135
1.0079 -0.4487 0.1265
0.5079 -2.0287 0.4465
1.1779 -1.2387 0.7665
1.1679 -1.2887 0.7765
2.0079 -0.4587 1.2465
1.5179 -1.7387 1.4265
-0.7421 -0.4387 -1.8535
-0.5821 -0.5087 -1.6435
-0.1621 0.0513 -1.4835
0.5779 -0.8587 -0.1535
0.6079 -0.8787 -0.1135
0.5979 -0.9287 -0.0935
0.4179 -1.7987 0.1965
1.2579 -1.1187 0.7565
1.2679 -1.1987 0.8065
1.7379 -1.0187 1.2265
1.3179 -1.8287 1.2065
1.5379 -1.8087 1.4365
1.6079 -1.8687 1.5565
-0.6721 -0.5387 -1.7635
0.2579 0.4113 -1.2435
0.3079 0.1913 -1.0735
0.5979 -0.4687 -0.3935
0.9379 -0.5387 0.0265
1.2479 -0.5387 0.3865
1.1879 -0.6687 0.3865
1.0379 -1.3587 0.5965
0.9079 -1.8287 0.7165
1.9579 -0.5187 1.1665
-0.6821 -0.1887 -1.9935
-0.0121 -0.3687 -1.1535
0.5479 0.3413 -0.9235
0.7779 -0.3087 -0.3035
0.8379 -0.3887 -0.1835
0.6379 -0.7887 -0.1835
0.8579 -0.5687 -0.0635
1.6179 0.1713 0.3665
1.6079 0.1213 0.3865
0.8179 -1.1687 0.2265
1.1679 -1.2287 0.6465
1.2279 -1.2287 0.7065
1.4279 -1.7487 1.2265
-0.2821 0.1513 -1.7735
-0.4121 -0.4387 -1.5935
0.8079 -0.6987 -0.0835
1.5479 0.0213 0.3365
0.7779 -1.5087 0.3365
0.2679 -2.3187 0.2265
0.5979 -2.0587 0.4365
0.8479 -1.8787 0.6165
-0.1821 0.0713 -1.6435
-0.3921 -0.4387 -1.5935
-0.0321 -0.2687 -1.2935
0.0979 -0.4087 -1.0635
0.7379 -0.7187 -0.1835
1.6179 0.0213 0.3765
-0.3621 -0.6587 -1.4735
-0.0521 -0.4387 -1.2535
0.3679 -0.2287 -0.8935
0.8579 -0.2887 -0.3235
0.8979 -0.2387 -0.3035
1.2979 -0.6387 0.3565
0.9979 -1.5487 0.5365
0.7879 -1.9387 0.5265
1.2879 -1.2687 0.7065
1.6679 -1.2287 1.1065
1.7379 -1.1887 1.1665
1.5679 -1.7487 1.2865
1.6279 -1.8287 1.3965
-0.4521 -0.5387 -1.6735
-0.2421 -0.4587 -1.4835
0.3979 0.1513 -1.1035
0.6479 -1.7287 0.2165
0.7279 -1.7587 0.3265
1.1479 -1.2687 0.5165
-0.0721 0.1513 -1.6635
-0.0721 -0.2687 -1.4335
-0.0721 -0.3587 -1.3735
0.5279 0.2413 -1.0435
0.1279 -0.8687 -0.8635
1.2179 -0.6787 0.2465
0.7179 -1.8787 0.3465
0.8579 -1.8887 0.5165
2.0479 -0.5687 1.1065
2.1079 -0.5787 1.1665
-0.5621 -0.5687 -1.8335
-0.5221 -0.5387 -1.8035
0.3879 0.1613 -1.1835
0.3679 0.0813 -1.1735
0.7279 -0.7087 -0.3235
0.7079 -0.7687 -0.3135
1.3579 -0.0487 0.0065
0.9579 -1.2287 0.2165
0.7379 -1.7487 0.2665
2.2079 -0.5387 1.2265
-0.1621 -0.1587 -1.6535
-0.2621 -0.4087 -1.6335
-0.1621 -0.3187 -1.5635
0.7279 0.5713 -1.0735
0.1979 -0.8787 -0.8535
0.8279 -0.1887 -0.5435
0.4279 -1.3687 -0.3135
0.9879 -1.5787 0.4265
0.9379 -1.7187 0.4365
0.9379 -1.8287 0.5065
1.2979 -1.4487 0.6865
2.0379 -0.6587 1.0765
2.1779 -0.6187 1.2065
-0.0621 -0.1887 -1.5535
0.7679 -0.8687 -0.2435
1.5679 -0.6687 0.5265
1.0479 -1.6587 0.4965
2.0379 -0.7787 1.1065
-0.1521 0.1513 -1.8735
-0.1621 0.0513 -1.8435
-0.0921 0.1113 -1.7935
0.0379 0.1413 -1.6635
-0.0821 -0.4287 -1.4735
0.2679 -1.5287 -0.4735
0.6379 -1.7687 0.0665
1.2279 -1.5887 0.6365
-0.1021 0.0813 -1.8135
0.3379 0.1913 -1.3935
1.7779 0.3713 0.1065
0.9879 -1.3087 0.1665
1.1979 -1.6087 0.5665
1.1379 -1.7687 0.5965
1.3479 -1.5587 0.7065
1.2479 0.5513 -0.6135
1.4679 -0.0887 -0.0235
1.0179 -1.5287 0.2865
1.3679 -1.1487 0.4665
1.0779 -1.8087 0.5165
1.8679 -0.7387 0.7965
1.1779 -1.8087 0.6265
-0.0721 -0.4387 -1.5735
0.4279 -0.3187 -1.0835
0.5279 -0.3287 -0.9635
1.1879 0.2713 -0.5735
0.8079 -0.8487 -0.3635
0.5879 -1.2787 -0.3635
0.9779 -1.2387 0.0465
1.0679 -1.2287 0.1365
1.3279 -1.2387 0.4365
1.1779 -1.6587 0.5065
0.3979 -0.2187 -1.2035
0.8479 0.3113 -1.0135
1.3679 0.0913 -0.3035
1.1979 -0.3987 -0.2135
1.6279 0.0213 0.0265
1.1679 -1.2987 0.2465
1.7679 -1.2687 0.8965
0.3479 -0.2587 -1.2835
1.2079 0.6813 -0.8535
0.8679 -0.0587 -0.8135
1.3479 0.6313 -0.6835
0.9379 -0.7687 -0.3435
0.8579 -0.9287 -0.3435
1.3379 -1.0187 0.2465
1.0479 -1.6087 0.2565
1.8279 -0.6187 0.5665
1.4479 -1.6187 0.7065
1.7979 -1.1787 0.8465
0.7179 -0.8987 -0.5635
1.3279 -0.0387 -0.3635
1.0279 -1.2587 -0.0135
0.9979 -1.7287 0.2265
1.4579 -1.2487 0.4665
1.4979 -1.6287 0.7165
0.5279 -0.2387 -1.1835
0.6279 -0.2687 -1.0535
0.8879 0.0713 -0.9635
1.4179 -0.0387 -0.3135
1.3179 -0.5987 -0.0935
1.5579 -1.0687 0.4265
1.7979 -1.3987 0.8665
0.7979 -0.1187 -1.0035
1.3479 -0.0087 -0.4435
1.3179 -0.0987 -0.4335
1.4279 -0.0487 -0.3335
1.8079 0.3013 -0.1035
1.6979 -0.5387 0.2365
1.3379 -1.1787 0.2065
1.4979 -1.2087 0.3965
1.3579 -1.7687 0.5565
1.8579 -1.2387 0.8165
1.9479 -1.8787 1.2765
1.0079 0.2413 -1.0135
0.8179 -1.1487 -0.4335
1.8879 0.3613 -0.1035
1.3479 -0.5887 -0.1635
1.3579 -1.5887 0.4165
2.0279 -1.1787 0.9265
-0.0821 -0.4687 -1.8635
1.6779 -1.0987 0.4465
1.0479 0.4213 -1.1535
1.1679 -0.5587 -0.4735
1.8279 0.2313 -0.1835
1.2479 -0.7787 -0.2535
1.2679 -1.2887 0.0565
1.5679 -1.1587 0.3165
1.7479 -1.0487 0.4465
1.5179 -1.8187 0.6365
1.2379 0.1913 -0.8535
1.6279 -1.1487 0.3365
1.9579 -1.2287 0.7465
1.3779 0.3013 -0.8035
1.1379 -0.6287 -0.5335
1.2579 -0.5387 -0.4635
1.7779 -0.6887 0.2065
1.8579 -1.0287 0.4865
2.0879 -0.9687 0.7065
0.2679 0.0813 -1.9435
1.2979 -0.7287 -0.3435
1.7179 -0.7687 0.1365
1.7979 -1.0987 0.4165
2.0479 -1.1187 0.7065
1.7279 -1.8187 0.7465
1.6479 -1.9787 0.7565
1.0679 -0.1287 -0.9735
1.4579 -0.3487 -0.4335
1.1979 -0.8987 -0.3835
1.4279 -1.1987 0.0265
1.0179 -0.1187 -1.0835
1.2879 -1.6687 0.1065
2.1179 -1.1087 0.6965
-0.2421 -0.6287 -2.2135
0.5579 -0.0087 -1.6935
1.8979 -0.0587 -0.1735
1.5979 -0.6587 -0.1735
1.3579 -1.2487 -0.1035
1.8379 -0.6587 0.1065
1.7479 -0.9787 0.1865
1.6979 -1.7687 0.5765
0.5179 -0.0987 -1.7235
1.5479 -0.0287 -0.6235
1.2679 -0.6387 -0.5835
2.1879 0.4713 -0.2035
1.5679 -0.7487 -0.1835
1.3479 -1.4387 -0.0435
1.8879 -0.7987 0.1865
0.6879 -0.7387 -1.2135
2.2479 0.5113 -0.2135
1.8079 -0.2387 -0.2635
1.3979 -1.3387 -0.0835
1.9179 -0.7387 0.1465
1.7779 -1.1587 0.2265
2.5479 -0.5287 0.7265
1.0479 -0.2387 -1.1335
1.8579 -0.1487 -0.3035
1.6479 -1.0987 0.0065
1.8479 -1.0987 0.2265
2.0479 -1.3687 0.6065
0.2179 -0.2387 -2.1035
1.4479 -0.1887 -0.7735
1.4079 -1.2987 -0.1835
0.2379 -0.1587 -2.1735
2.1479 1.0813 -0.7835
1.7279 -1.0287 -0.0435
1.7379 -1.3087 0.1365
2.5679 -0.6387 0.6665
0.6679 -0.8387 -1.3535
1.2279 -0.1887 -1.1135
1.2579 -1.3987 -0.3835
0.2279 -0.1487 -2.2835
2.2279 1.0513 -0.7735
1.5979 -0.1287 -0.7935
1.3279 -1.3687 -0.3735
1.4879 -1.3687 -0.2035
1.9179 -0.8587 -0.0135
1.8779 -0.9587 -0.0035
1.1179 -0.1387 -1.3535
1.0579 -0.4387 -1.2535
1.8179 -0.3687 -0.4435
1.6679 -1.1587 -0.1535
1.6179 -1.2687 -0.1535
1.8379 -0.9987 -0.0635
2.2879 -0.6987 0.2565
1.3479 0.4513 -1.4835
1.4079 0.5313 -1.4535
1.5079 0.2213 -1.1635
1.7679 -0.4787 -0.4735
1.5579 -1.2287 -0.2935
1.8879 -1.2987 0.1165
1.5479 0.1913 -1.1535
1.4779 -0.5787 -0.7835
1.5179 -1.2687 -0.3435
2.0079 -0.7387 -0.1135
0.3379 -0.0387 -2.3735
1.1079 -0.3287 -1.3635
1.6279 0.2813 -1.1335
1.1279 -0.9487 -0.9835
1.0979 -1.1287 -0.9235
1.4279 -0.6187 -0.8435
1.9179 -0.3587 -0.4635
1.3779 -1.3587 -0.4735
1.7179 -1.0887 -0.2635
2.0579 -0.5787 -0.1735
2.4779 -0.3087 0.1165
1.0079 -0.3887 -1.4735
1.1179 -0.4987 -1.2935
1.7379 0.3413 -1.0935
2.2779 1.0313 -0.8935
1.5379 -0.2887 -0.9435
2.7379 -0.8487 0.6865
0.9879 -0.1587 -1.6535
2.0379 0.9113 -1.1135
1.9779 0.5413 -0.9835
1.5779 -0.4387 -0.8535
1.8879 -0.4587 -0.4935
1.7879 -0.9987 -0.2935
1.8179 -1.1287 -0.1835
2.2079 -0.7087 -0.0135
1.0779 -0.1187 -1.6035
1.2179 -0.8587 -1.0335
2.2579 0.2213 -0.5235
1.5379 -1.2687 -0.4535
1.9079 -0.7787 -0.3235
1.8079 -0.9587 -0.3335
1.0179 -0.1687 -1.6735
2.0279 0.8513 -1.1635
1.2079 -0.9187 -1.0435
2.3079 0.3313 -0.5635
1.5079 -1.3187 -0.4935
2.8179 -0.9587 0.7465
1.3379 0.0313 -1.4835
1.4979 0.0913 -1.3435
2.2579 0.1613 -0.5435
2.2079 -0.5487 -0.1935
1.4379 0.1313 -1.4635
1.4379 -0.0487 -1.3635
1.4979 -0.0087 -1.3135
2.3079 0.9613 -0.9835
1.9979 0.0613 -0.8135
1.5579 -1.2887 -0.5235
2.0479 -0.6887 -0.3335
2.1879 -0.6287 -0.2135
2.2579 -0.7487 -0.0735
2.2579 -0.9287 0.0365
1.1779 0.2113 -1.8235
1.1879 0.1913 -1.8035
1.0779 -0.2387 -1.6735
1.3379 0.0313 -1.5535
1.5379 -0.5487 -0.9935
1.5279 -0.5787 -1.0335
1.4679 -1.4187 -0.6135
1.9379 -0.7387 -0.4935
1.7279 -1.2787 -0.4035
1.2279 -0.1387 -1.6535
1.2979 -0.0587 -1.6235
1.2279 -0.4487 -1.4735
1.4379 -0.3587 -1.2935
1.4479 -0.6987 -1.0835
2.2279 -0.5387 -0.3235
0.3179 -0.1487 -2.6735
1.8079 0.3913 -1.3735
1.4279 -0.3987 -1.3135
1.7079 -0.4487 -0.9935
1.0479 -0.3787 -1.8035
1.5879 -0.4287 -1.1735
1.5379 -1.4287 -0.6635
1.6279 -1.3387 -0.6135
1.8379 -1.1087 -0.5135
2.1879 -0.6787 -0.3735
2.3879 0.0413 -0.6235
1.6479 -1.3187 -0.6435
1.7179 -1.2387 -0.6135
2.1579 -0.7687 -0.4035
1.0479 -0.4687 -1.8335
2.2079 0.1813 -0.9535
2.1279 -0.7787 -0.4835
1.6679 -0.3787 -1.2635
2.1179 -0.5087 -0.6935
1.8979 -1.1187 -0.5835
0.9279 -1.1587 -1.6635
1.5979 -0.2987 -1.4435
2.0279 -0.7487 -0.7035
2.2479 -0.6987 -0.4935
1.3579 -0.5187 -1.6135
1.5479 -0.3787 -1.4935
0.3679 -0.2287 -2.9035
1.4679 0.0013 -1.8535
1.7479 -0.4487 -1.2735
2.2579 0.2813 -1.1535
2.3279 0.3013 -1.0835
1.9779 -0.8987 -0.7635
1.2679 -0.5287 -1.8035
1.3279 -0.5587 -1.7135
1.6979 -0.5187 -1.3435
2.7279 0.9013 -1.0435
2.7479 -0.0087 -0.4935
1.3579 -0.5187 -1.7535
1.8079 0.0413 -1.5835
1.5579 -0.4587 -1.5735
1.8079 -0.4487 -1.3035
1.6479 -0.3887 -1.5535
1.4379 -0.4787 -1.7835
1.0479 -1.1787 -1.7935
2.0479 0.3513 -1.5935
2.0079 0.1913 -1.5435
2.3779 -0.4387 -0.8235
2.0079 -1.1387 -0.8435
2.0379 0.2813 -1.6735
1.6579 -0.5287 -1.6235
1.7579 -0.3787 -1.5935
1.1779 -0.6887 -2.0735
1.6679 -0.6487 -1.5735
2.9579 0.9713 -1.1135
1.1279 -1.0287 -1.9635
2.0379 0.0513 -1.6035
1.3079 -0.8387 -1.9035
2.2179 0.1313 -1.4935
1.7479 -0.5587 -1.6635
2.4579 0.8013 -1.7235
2.4479 0.7413 -1.7035
2.0979 0.0513 -1.6735
1.1179 -1.2487 -2.0135
1.0479 -1.4087 -1.9935
2.1979 0.1013 -1.6435
1.3779 -0.9587 -1.9435
0.4779 -2.0587 -2.3535
0.5079 -2.0387 -2.3335
0.7379 -1.8287 -2.2135
1.4679 -0.9287 -1.9535
2.0579 -0.1287 -1.8235
2.7179 0.7213 -1.6135
0.7179 -1.8587 -2.2935
0.5579 -2.2787 -2.2235
1.5579 -0.8687 -1.9735
2.5779 0.6213 -1.8735
1.5779 -0.9287 -2.0835
0.8679 -2.0587 -2.2435
0.6879 -2.2887 -2.3335
1.2979 -1.5487 -2.1435
0.9479 -2.1487 -2.1935
0.9279 -2.2487 -2.1835
1.5179 -1.5387 -2.0035
2.2379 -0.5887 -1.8135
1.3979 -1.7487 -2.1635
1.3779 -1.9187 -2.1535
1.4379 -1.9387 -2.1935
-3.0221 1.7013 0.5265
-2.5521 2.2513 0.5665
-1.5721 1.5213 1.7765
-1.4821 1.2913 1.7765
-1.4421 0.6813 2.1065
-2.1121 1.9313 0.5765
-1.4121 0.6813 1.9965
0.4679 2.1413 3.3465
-1.2721 1.0413 1.8265
-1.7621 -0.2587 1.8465
-0.4321 1.1813 2.5165
-1.6721 0.8113 1.1465
-0.8721 0.6013 2.1765
-0.9621 0.5613 2.0565
-0.7721 0.7313 2.1865
-0.9221 0.4213 2.1765
-1.1421 0.5513 1.8165
-0.6721 0.7913 2.2365
-0.9521 0.3613 2.1365
-0.8721 0.6113 2.0565
-1.1821 0.1413 1.9465
-0.8721 0.3913 2.1765
-0.2521 0.8713 2.6365
-1.8021 1.0013 0.7465
-1.6421 1.1113 0.8365
-0.4021 0.9113 2.3665
-0.4421 0.7813 2.3865
-1.5421 0.9313 1.0165
-0.3421 0.8613 2.4265
0.7979 1.8413 3.2065
-1.0521 0.3313 1.8165
0.4779 1.3113 3.0765
0.5779 1.4113 3.1065
-1.2321 0.5513 1.4365
-0.7521 0.4213 2.0465
-0.9221 0.7513 1.5765
-0.6321 1.0113 1.7765
-1.1021 -0.1087 1.8265
-0.9721 0.0113 1.9065
-0.3221 0.8213 2.2265
-0.4221 0.6713 2.1965
-1.5621 0.6913 0.8265
-0.7021 0.6613 1.8465
-0.6821 0.4813 1.9665
-0.1121 0.7613 2.4765
-0.4421 0.5213 2.1865
-1.0421 1.0113 1.2065
-1.0821 0.8813 1.2165
-0.0021 0.8313 2.4965
0.3279 0.8613 2.8565
-1.5821 1.1813 0.4565
-0.0521 1.1713 2.2265
-0.2221 0.8513 2.1965
0.2279 1.3313 2.4665
0.2379 1.3113 2.4865
0.7979 1.3613 3.0965
-1.5721 1.2613 0.3865
-0.7321 0.3313 1.8465
0.2079 1.5013 2.3165
1.1579 1.1213 3.6065
-1.5421 0.2513 0.9165
0.1579 1.3713 2.2765
0.2379 1.1813 2.4765
-1.3821 0.6613 0.8465
-0.7421 0.3713 1.7465
-0.7421 0.9413 1.4065
-0.4221 1.3213 1.5765
-0.6221 0.7813 1.6265
-1.4421 0.6513 0.7065
-0.7421 0.3313 1.6765
0.0779 0.6713 2.4465
0.5479 0.9613 2.8265
-1.7221 0.9613 0.1865
-1.5921 0.8513 0.3765
-0.8821 0.6713 1.3065
-0.6421 0.5813 1.6165
0.4579 1.4313 2.4365
1.0579 1.3013 3.1865
0.9379 0.9213 3.2465
1.1679 0.9513 3.5065
-1.4821 0.9413 0.4265
-0.5421 0.6313 1.6665
-0.2821 1.1713 1.6465
0.5179 1.2613 2.5165
-1.2621 0.7213 0.7165
-1.2521 0.6913 0.7365
0.7179 1.0313 2.8265
-0.9421 0.6813 1.0565
-0.3521 1.0413 1.5565
0.6279 0.1313 3.1465
-1.8621 0.7213 -0.0535
-1.7221 0.8113 0.0665
-0.4921 0.9013 1.4265
-1.1721 0.8713 0.6265
0.3279 0.7613 2.3965
-1.4121 1.0313 0.2265
-0.9621 0.8713 0.8265
-0.3821 0.9613 1.4465
-0.9621 0.5513 0.9465
-0.5321 0.3213 1.5665
0.5779 0.3613 2.8165
0.7479 0.2913 3.0465
-1.5021 0.9813 0.0665
-1.1621 0.3313 0.7965
-0.7921 0.1613 1.3165
-0.1021 0.6613 1.8365
0.7179 0.6013 2.8065
0.7179 0.8213 2.6465
0.8379 0.6513 2.8765
-0.7421 0.9313 0.8765
-1.0821 0.3713 0.7965
-0.6021 0.6213 1.2065
0.5279 0.4813 2.5665
0.8279 0.5013 2.9065
-1.2321 0.5713 0.4665
-0.7221 0.8913 0.8865
-0.3021 0.6313 1.5065
0.2679 0.4713 2.2365
0.5679 0.7113 2.4565
0.3379 0.0813 2.5165
-0.5521 0.5613 1.2165
0.1679 0.9813 1.8165
0.4779 0.3913 2.4765
0.8379 0.2513 2.9665
-0.5021 0.7513 1.1365
0.7479 0.0113 2.9465
0.0379 0.7313 1.7265
0.7979 0.6613 2.6265
0.7079 0.3513 2.6865
-1.2721 1.0513 0.0165
-1.3321 0.6913 0.1465
-1.0821 0.3813 0.6065
0.7079 0.6313 2.5065
0.7079 0.4113 2.6165
1.0479 0.7713 2.8065
0.7479 0.0813 2.8265
-0.2321 0.9313 1.2365
-1.2821 1.1813 -0.1335
0.2779 0.8513 1.8265
0.0579 0.2713 1.8865
0.2479 -0.0287 2.2565
0.3379 0.0313 2.3265
0.6179 0.1713 2.5765
1.0379 0.5213 2.8665
-1.5521 1.2513 -0.5035
-1.4221 1.4113 -0.4435
-0.7621 1.0313 0.5165
0.2979 0.6213 1.9365
0.6579 0.6513 2.3365
0.6079 0.1413 2.5465
0.7279 0.2413 2.6265
0.7979 0.2913 2.6865
1.1379 0.6013 2.9065
-1.4221 1.2013 -0.3635
0.2179 0.4413 1.9065
0.2279 0.0513 2.1265
-1.3921 1.3613 -0.4435
-1.3921 1.1213 -0.3135
-1.0721 0.7513 0.2465
-0.7821 0.7613 0.5565
-0.9721 0.2613 0.6165
-0.8821 -0.0187 0.8665
-0.2121 0.8513 1.1765
-0.1321 -0.0687 1.7465
0.2779 0.2213 2.0665
0.6779 0.3213 2.4665
1.3779 0.8513 2.9765
1.6279 0.0513 3.6965
-0.7221 0.8113 0.5765
-0.5121 0.9613 0.7365
-0.7721 0.4513 0.7065
0.2379 0.7213 1.7265
0.2879 0.7513 1.7565
-1.6321 0.9813 -0.5835
-1.3421 0.9213 -0.2135
-0.3821 0.8513 0.9065
-0.3521 0.3413 1.2165
-0.0721 0.3513 1.5165
0.9479 0.4913 2.6065
1.6079 0.0513 3.5965
-1.5421 1.0913 -0.5735
-1.6521 0.6613 -0.4735
-0.5621 0.3413 0.9365
-0.5121 0.3913 0.9665
1.0579 0.5913 2.6465
-1.4921 1.0913 -0.5435
-1.6021 0.7513 -0.4935
-1.3921 0.8713 -0.3135
-1.0921 0.4613 0.2365
-0.6421 0.9213 0.5065
-0.8621 0.2113 0.6265
-0.5821 0.5613 0.7665
-0.1721 0.6313 1.1965
0.2479 -0.1287 2.0765
1.1179 0.6213 2.6665
1.1479 0.6313 2.6965
-1.1421 1.4213 -0.3635
0.0279 0.5213 1.4465
0.0679 0.3113 1.6065
0.1379 0.3813 1.6465
0.2579 0.1313 1.9065
0.3079 -0.3587 2.2265
0.2679 -0.4387 2.2265
1.1379 -0.2287 3.1065
-1.1121 1.3713 -0.3435
-0.1021 -0.0087 1.5265
0.6279 0.3213 2.1865
0.3579 -0.1487 2.1265
1.5679 0.4013 3.2165
-0.9621 0.7513 0.1065
-0.9821 0.7013 0.1165
-0.4921 0.4413 0.8065
0.0079 0.8813 1.1465
0.3379 -0.5187 2.2565
0.8079 0.0713 2.4765
1.5479 0.4613 3.1065
1.3779 -0.1587 3.2565
-0.3921 0.2713 0.9665
-0.2521 0.4113 1.0565
0.0979 0.7413 1.2665
0.4179 0.5513 1.7365
0.8679 0.3413 2.3565
0.9679 0.4513 2.4165
-1.4221 0.8813 -0.5835
-1.0521 -0.2487 0.4565
-0.7821 -0.0687 0.6565
-0.0121 0.5613 1.2065
0.1679 0.4213 1.4765
0.3479 -0.0187 1.9065
0.9379 0.1213 2.5065
1.5579 0.2713 3.1365
1.7379 -0.1387 3.5465
1.7379 -0.1887 3.5765
-0.6421 0.0313 0.7165
0.2979 0.7613 1.3865
0.8579 -0.1087 2.4965
1.3679 -0.1587 3.0965
-1.4321 0.8513 -0.6635
-0.0521 0.5613 1.0565
1.6279 -0.1287 3.3365
-0.1321 0.2713 1.0865
0.3079 0.4413 1.4865
0.6279 0.5913 1.7665
1.3679 0.4413 2.6865
1.8479 -0.0787 3.5065
-1.9421 0.7113 -1.2535
-1.8921 0.7713 -1.2235
-1.6121 0.7913 -0.9135
-0.5621 0.7313 0.3065
-0.5621 -0.1587 0.7865
0.3179 0.6913 1.3365
0.5479 0.7313 1.5665
0.4679 0.4413 1.6265
0.3779 0.2313 1.6365
1.5879 0.2813 2.9865
1.1079 -0.3987 2.8065
1.1579 -0.3787 2.8465
1.2579 -0.2987 2.9265
1.3179 -0.2387 2.9665
-0.6421 -0.0587 0.6065
-0.3221 0.4013 0.7165
1.6179 -0.1887 3.2365
0.7879 0.2113 2.0365
1.1479 0.2513 2.4265
1.7579 -0.2787 3.4065
-1.6121 0.9513 -1.1135
-1.4421 0.7013 -0.7835
-0.7721 1.0413 -0.2135
-1.3821 -0.1587 -0.2635
-0.9621 0.2513 0.0065
-0.6021 0.4413 0.3065
0.4479 0.1213 1.6665
1.1079 0.1413 2.4065
-1.2321 1.3313 -0.9235
-1.0521 0.3213 -0.1735
-0.8621 0.3313 0.0265
-0.4821 0.7913 0.2165
0.7079 0.5013 1.7165
0.9779 0.6213 1.9565
0.7279 -0.0287 2.0265
1.6679 0.1613 2.9865
-1.4921 0.6613 -0.8835
-0.7121 1.0313 -0.2135
-0.5721 0.2713 0.3565
-0.8521 -0.6287 0.5165
-0.1021 0.3413 0.8565
0.9179 0.3313 2.0065
0.9379 -0.1887 2.3065
-0.7921 0.8413 -0.2335
-0.7821 0.8213 -0.2135
-0.8721 0.1813 0.0265
-0.4821 0.6513 0.2165
-0.4621 0.3513 0.4065
-0.3921 0.1713 0.5765
-0.2121 0.0213 0.8665
0.2179 0.2313 1.2365
-0.9521 -0.5587 0.2965
-0.5421 -0.1287 0.5265
0.7279 0.6413 1.5465
0.8179 0.7413 1.5965
0.5079 -0.3887 1.8465
0.1879 0.3613 1.0565
1.0379 0.8313 1.7665
0.9779 0.1413 2.0565
0.6079 -0.5387 2.0065
1.8379 -0.2487 3.2465
-1.1821 1.1713 -0.9535
-0.5821 -0.1487 0.4265
0.6579 0.3813 1.5365
1.0379 -0.0687 2.2065
-0.2521 0.6813 0.3165
-0.1621 -0.0387 0.8065
0.5679 0.5513 1.3165
0.4479 0.2613 1.3265
0.6179 0.2513 1.5265
0.5779 0.0013 1.6165
0.6779 -0.3087 1.8865
1.0379 -0.1487 2.2065
1.5379 -0.0187 2.7065
1.5379 -0.7687 3.1065
-1.1921 0.4713 -0.6535
-0.4321 0.7313 0.0465
-0.5221 0.4613 0.1065
-0.2821 -0.2387 0.7465
-0.0221 -0.0187 0.9165
0.4679 0.1713 1.3665
0.9479 0.1413 1.9265
0.7379 -0.6087 2.0865
1.2179 -0.3787 2.5065
-0.7921 1.0813 -0.5635
-0.1621 0.0513 0.6865
0.8179 -0.1787 1.9165
1.0379 -0.5687 2.3665
1.3079 -0.3987 2.5865
1.4179 -0.2887 2.6465
-0.9221 1.0113 -0.7135
-0.6721 0.7613 -0.2935
-0.3021 0.6913 0.1565
0.6179 -0.1287 1.6365
0.7379 -0.0587 1.7165
0.7879 -0.8487 2.2065
-0.0121 0.0813 0.7865
0.1579 0.0513 0.9865
0.3479 0.2113 1.1165
0.7979 0.7713 1.3165
1.2079 -0.0187 2.2065
1.5579 -0.2887 2.7365
-1.3221 0.3113 -0.8435
-0.8621 0.7313 -0.5535
-0.9021 0.6413 -0.5435
-0.6521 0.6913 -0.2935
-1.0021 -0.1687 -0.2235
0.0179 0.0513 0.7965
0.5179 -0.4387 1.6265
0.6279 -0.3587 1.6965
1.3079 -0.2887 2.4265
1.9679 0.0013 3.0065
2.2279 0.1113 3.2465
-0.4121 0.9413 -0.1935
-0.4421 0.5413 -0.0035
0.6279 0.6413 1.1365
0.6879 0.4413 1.3065
0.4279 -0.0687 1.2865
0.6579 0.1413 1.4365
1.0879 0.7213 1.6065
0.9379 0.1213 1.7665
0.9779 0.1313 1.7965
1.7879 -0.3387 2.9665
-0.2121 0.9813 -0.0135
-0.0721 1.1413 0.0565
-0.3621 0.5913 0.0265
0.5079 0.6813 0.9465
0.2479 -0.0687 1.0665
0.8079 0.5613 1.3465
1.1179 0.4013 1.7865
1.0579 0.2013 1.8265
-1.3721 0.2413 -0.9435
-0.1521 0.7613 0.1365
-0.5521 -0.4387 0.3365
-0.3921 -0.2287 0.3965
0.0479 0.2413 0.6365
0.6279 0.7713 1.0065
0.8479 0.8313 1.2265
0.4079 0.0713 1.1365
0.5679 -0.0387 1.3765
0.8979 0.3713 1.5265
2.0179 0.0513 2.9465
-1.1021 0.5613 -0.8435
-1.0721 0.4913 -0.7735
-0.1821 0.7013 0.1165
-0.3221 0.1813 0.2365
-0.5821 -0.5087 0.3165
-0.8221 -0.9787 0.3065
0.2579 0.2513 0.8465
0.2879 0.2713 0.8665
1.0479 -0.0387 1.8865
1.9679 -0.0287 2.9065
-0.8921 0.6413 -0.6735
-1.0121 0.2313 -0.5935
-0.7821 0.2713 -0.3635
-0.1521 -0.1087 0.5565
0.5079 0.2713 1.0865
0.5179 -0.3487 1.4365
1.1679 -0.2087 2.0865
1.2279 -0.3487 2.2265
1.8879 -0.0287 2.7865
2.3379 -0.1287 3.3465
-0.9521 1.2613 -1.1135
-0.9321 -0.1287 -0.3335
0.6679 0.2213 1.2665
0.5979 0.0913 1.2565
0.6979 -0.0487 1.4465
0.9079 0.2213 1.5365
1.0579 -0.2987 1.9865
2.3179 0.1013 3.1765
-0.9721 0.8613 -0.9435
-0.3721 0.4613 -0.0635
-0.1821 0.0913 0.3565
0.8179 0.3613 1.3265
0.8779 -0.6987 1.9565
2.4779 0.0313 3.3565
-1.1221 0.6713 -1.0435
-1.2421 -0.0287 -0.8135
-0.4521 0.4813 -0.1935
-0.5521 0.0813 -0.0935
-0.4121 0.0513 0.0765
-0.0421 0.1913 0.4265
-0.0721 -0.2487 0.6265
0.6079 0.4913 0.9865
0.7279 -0.2487 1.5165
-1.3221 1.3013 -1.6435
-1.0821 0.7713 -1.0935
-0.6221 -0.0587 -0.1335
0.0379 0.9113 0.0865
0.0179 0.8313 0.1165
-0.3521 -0.1087 0.2065
0.4379 0.7613 0.6265
0.0379 0.0513 0.5465
0.8479 0.4713 1.2265
0.6579 -0.0387 1.2865
0.7979 -0.2187 1.5465
2.6079 -0.0187 3.4665
2.6479 -0.0287 3.5165
-1.0121 0.3513 -0.8235
-0.3421 0.8113 -0.3135
0.7979 -0.3187 1.5665
-0.2421 0.9213 -0.2935
-0.2321 0.2613 0.0665
-0.6821 -0.7387 0.0965
0.0979 0.3613 0.3765
0.0379 -0.4087 0.7365
1.1279 0.6913 1.3565
1.2479 0.2713 1.7165
1.3079 -0.6687 2.3065
1.7579 -0.3387 2.6165
-1.0421 1.0113 -1.2735
-0.5321 0.7613 -0.5735
-0.4621 0.7713 -0.5035
-0.5721 0.3313 -0.3835
-0.6821 0.0913 -0.3735
0.1079 -0.3187 0.7265
0.9579 0.8313 1.0665
1.0779 0.5013 1.3765
0.9579 -0.3387 1.6865
1.5179 0.1213 2.0665
-1.2421 0.3013 -1.1535
-0.1821 0.1813 0.1065
-0.0021 -0.3287 0.5665
0.9479 0.7313 1.0565
0.6079 -0.3887 1.2865
0.8679 -0.1287 1.4365
1.0979 -0.2287 1.7565
1.4079 0.0513 1.9465
1.3079 -0.1387 1.9365
1.5579 -0.1887 2.2565
1.6479 -0.1387 2.3165
1.7779 -0.1587 2.4765
1.3379 -0.8387 2.3465
-0.5421 0.4113 -0.4635
-0.3021 0.4613 -0.2335
-0.1421 0.5713 -0.1135
0.4779 0.1113 0.8365
0.2879 -0.3887 0.8965
0.6479 -0.4087 1.3065
1.3179 0.2213 1.7165
1.1779 -0.6087 2.0165
1.4579 -0.4587 2.2465
1.8479 -0.5687 2.7365
1.9579 -0.4487 2.7965
-1.2521 0.6313 -1.4235
-0.5621 0.3513 -0.4935
0.2279 0.8413 0.1265
0.2279 -0.0887 0.6265
-0.9921 1.1713 -1.4635
-1.0721 0.7313 -1.3135
0.3379 0.6413 0.3165
0.6379 0.6213 0.6665
1.4279 0.7413 1.4865
1.2679 0.0313 1.6865
2.0979 -0.5487 2.9265
2.2279 -0.6687 3.1365
-1.0921 0.6013 -1.3135
-0.8221 0.2413 -0.8135
-0.5421 0.5913 -0.6935
-0.3521 0.7513 -0.5635
-0.2721 0.2813 -0.2135
-0.1221 0.4613 -0.1435
0.3579 -0.1287 0.7065
1.9379 -0.2687 2.5565
2.2979 -0.6887 3.1865
-1.1321 0.4513 -1.3235
-0.7821 0.5313 -0.9735
-0.4521 -0.3787 -0.1035
0.3079 0.5813 0.2265
1.5379 0.7613 1.5065
1.0179 -0.1687 1.4365
1.7179 -0.3787 2.3265
-0.6521 0.8213 -1.0335
-0.3321 0.4913 -0.4935
-0.2521 0.0913 -0.1835
-0.2421 -0.3087 0.0465
1.5679 0.4313 1.6665
1.1179 -0.3687 1.6065
1.1879 -0.3887 1.6865
1.8179 -0.7487 2.5865
1.8179 -0.8287 2.6265
-0.6521 0.6113 -0.9735
0.4879 0.9013 0.1465
0.6879 0.6713 0.5065
0.7679 0.4613 0.7065
0.5279 -0.2787 0.8365
1.0479 0.1413 1.1965
2.1279 -0.4287 2.7065
2.0579 -0.9487 2.9265
2.2279 -1.0387 3.1565
-0.4721 0.9413 -1.0035
0.4379 0.7513 0.1165
0.4179 -0.0987 0.5665
0.3379 -0.4187 0.6565
0.6379 -0.0587 0.7965
1.1679 0.4113 1.1265
1.0379 0.1613 1.1065
0.9179 -0.4587 1.3265
1.1979 -0.1687 1.4865
1.4479 -0.3687 1.8665
1.6579 -0.1987 2.0065
1.9679 -0.9387 2.7565
1.9979 -0.9987 2.8265
-0.4321 0.7213 -0.8835
-0.1421 0.8013 -0.6035
0.8379 0.5213 0.6465
0.7179 -0.4387 1.0365
0.9179 -0.2687 1.1665
1.3079 -0.1487 1.5365
1.2679 -0.7487 1.8265
1.1879 -1.0587 1.9065
-0.4221 1.0013 -1.0835
0.9079 0.5713 0.6465
0.2179 -0.5387 0.4865
1.0779 0.2913 0.9965
1.0079 -0.2687 1.2265
-0.4421 0.7213 -0.9935
0.3779 0.5513 0.0265
0.9179 0.2713 0.7865
0.8379 -0.3687 1.0465
-0.6321 1.7313 -1.7935
0.9279 -0.3087 1.0665
1.3379 -0.9887 1.9065
-0.3421 0.8413 -1.0135
0.1679 -0.1587 0.1065
0.2079 -0.3587 0.2665
0.9679 0.4113 0.6865
1.2179 0.1613 1.1065
1.7979 0.2213 1.7265
1.7779 -0.7187 2.2265
-0.4321 0.6713 -1.0335
0.1579 -0.2287 0.1165
0.2679 -0.9487 0.6465
-0.5621 0.2313 -0.9735
0.1079 1.2513 -0.7735
0.2579 1.0313 -0.4835
1.8779 -0.7287 2.3065
-0.6521 1.5313 -1.8035
-0.0221 -0.8387 0.2065
0.0179 -0.8087 0.2365
0.6979 0.0613 0.5265
0.2579 -0.7187 0.4665
0.5579 -0.9087 0.9165
1.8779 -1.0187 2.4365
-1.0721 0.4513 -1.6835
-1.1421 0.2113 -1.6435
-1.0321 0.3213 -1.5735
-0.3521 1.0213 -1.1935
-0.2621 1.1413 -1.1635
0.5879 -0.1087 0.4765
0.7279 -0.5887 0.8965
-0.7921 1.0813 -1.7435
-1.1621 0.0813 -1.6135
0.3179 0.9313 -0.4135
-0.1921 -0.4487 -0.2335
-0.1521 -0.6487 -0.0735
-0.1821 1.0513 -1.0635
-0.0621 0.9113 -0.8535
0.0579 0.2313 -0.3435
-0.2321 -0.5587 -0.2335
0.4279 -0.1487 0.2765
0.4079 -0.6687 0.5465
0.4179 -1.0587 0.7565
0.7179 -0.7487 0.9365
1.8079 -0.5287 2.0265
2.2779 -0.3087 2.4365
2.3079 -1.1887 2.9465
0.5079 -0.2387 0.3965
0.6079 -0.2587 0.5265
0.4979 -0.8187 0.7065
1.2179 -0.1487 1.1465
-0.3121 1.1013 -1.2735
-0.0121 0.2113 -0.4435
0.2879 -0.2387 0.1365
1.2479 -0.2687 1.2265
1.0579 -0.6187 1.2165
0.0379 -0.7387 0.1065
0.1779 -0.5987 0.1965
0.4679 -1.0687 0.7765
0.7279 1.4413 -0.3335
0.8179 0.2413 0.4165
0.9279 0.2513 0.5265
0.5379 -1.0387 0.8065
1.5979 -0.7287 1.8265
1.7379 -0.9387 2.0865
2.3279 -0.3487 2.4065
-0.7721 1.0813 -1.8635
-0.1321 0.8613 -1.0335
0.1979 1.4113 -0.9535
0.1879 1.3413 -0.9435
0.2879 1.0513 -0.6735
0.0879 0.6613 -0.6735
0.3579 0.8313 -0.4635
2.0179 -0.6487 2.2065
-0.5821 0.8513 -1.5535
0.6179 -0.5487 0.5465
0.7379 -0.6887 0.7565
1.0179 -0.4687 0.9565
1.1079 -0.5387 1.0965
1.5079 -0.0687 1.2765
2.0079 0.2613 1.6565
-0.3221 0.6813 -1.2035
0.0379 0.8513 -0.8935
0.1779 0.5413 -0.5635
0.0579 0.1213 -0.4635
0.1279 0.0513 -0.3535
0.6379 -0.3787 0.4465
0.3279 -1.0687 0.4865
-0.3621 1.4813 -1.7235
-0.4021 0.5413 -1.2435
-0.1721 0.4313 -0.9235
0.2779 0.6413 -0.5435
0.1379 0.1713 -0.4335
0.1179 -0.0687 -0.3335
0.3779 -0.0387 -0.0535
-0.8921 0.7213 -1.9235
-0.6321 0.7613 -1.6535
-0.2521 0.3513 -1.0135
-0.1521 -0.3487 -0.5135
0.7779 -0.4887 0.6065
0.3879 -1.2487 0.5765
0.8079 -0.7687 0.7865
1.1879 -0.6187 1.1265
1.1279 -0.7487 1.1365
2.1579 -1.3287 2.5965
-0.1821 0.7513 -1.1835
-0.4121 0.2213 -1.1435
-0.3821 0.2413 -1.1235
-0.3921 -0.1187 -0.9335
-0.0221 -0.1987 -0.4935
0.1679 -0.5887 -0.0535
0.1979 -0.9087 0.1465
1.0579 0.0813 0.5665
0.7579 -0.4587 0.5265
2.2079 -1.3887 2.6565
-0.5121 1.3013 -1.8935
-0.6421 0.6513 -1.6735
-0.3921 0.4613 -1.2935
-0.4021 0.1613 -1.1435
