-4.0629 4.6685 -1.6035
-3.5129 4.9685 -0.8735
-2.6129 5.5085 0.3565
-2.8929 4.9785 -0.1935
-2.5329 5.3385 0.3665
-2.3329 5.2285 0.5365
-2.1529 3.8985 0.1165
-2.0929 3.8485 0.1565
-2.2029 -2.0315 -2.6635
-2.1529 -2.3315 -2.7435
-2.5329 -2.6415 -3.3135
-2.4929 -2.8715 -3.3735
-2.5629 -3.0215 -3.5135
-2.5629 -3.0215 -3.5135
-2.7129 -3.8215 -4.0435
-2.7729 -4.0215 -4.2035
-3.0429 -3.8315 -4.4035
-2.7729 -4.5615 -4.4635
-2.8529 -4.6415 -4.5835
-4.6329 4.8085 -2.1935
-4.5929 4.7285 -2.1835
-4.0429 5.4785 -1.2435
-3.4729 5.0285 -0.8335
-3.4529 4.9885 -0.8235
-2.8829 5.5585 0.0465
-2.6629 5.5785 0.3065
-2.6529 5.4885 0.2765
-2.5129 5.3485 0.3565
-2.4529 4.5885 0.0765
-2.4629 -1.6315 -2.8035
-2.5129 -2.9515 -3.4635
-2.5829 -3.1315 -3.6135
-2.6829 -3.7515 -4.0135
-2.6929 -3.8915 -4.0935
-2.7529 -3.9515 -4.1835
-2.5829 -4.1315 -4.0835
-2.9729 -3.8315 -4.3735
-4.4529 4.7085 -2.0735
-4.3229 4.8185 -1.8835
-3.9929 5.4685 -1.2235
-3.3629 4.8885 -0.8135
-2.9529 5.6685 -0.0035
-2.5529 5.5885 0.3865
-2.5429 5.3985 0.3165
-2.5129 5.3785 0.3365
-2.6329 4.0785 -0.3835
-2.0929 4.2885 0.2965
-2.0829 3.8785 0.1165
-2.3429 -0.5215 -2.1835
-2.1429 -1.9315 -2.6235
-2.1729 -2.2215 -2.7935
-2.1529 -2.3415 -2.8135
-2.5329 -2.4915 -3.2935
-2.5129 -2.9815 -3.5035
-2.5529 -3.0515 -3.5835
-2.5929 -3.2215 -3.7035
-2.5429 -3.4015 -3.7335
-2.6829 -3.5215 -3.9335
-2.8129 -4.7115 -4.6335
-4.3929 5.6985 -1.5835
-4.2429 5.8185 -1.3735
-4.0329 5.5685 -1.2535
-4.0029 5.5485 -1.2335
-3.3829 4.8685 -0.8735
-2.6729 5.6685 0.2665
-2.3529 5.3585 0.4765
-2.9229 4.2585 -0.6535
-2.6329 4.1185 -0.3935
-2.0529 3.9585 0.1565
-2.4329 -1.5515 -2.7835
-2.1729 -1.9315 -2.6835
-2.2629 -2.4615 -3.0235
-2.5729 -3.1415 -3.6835
-2.6329 -3.3315 -3.8235
-2.6629 -3.4415 -3.9035
-2.6829 -3.6215 -4.0135
-2.6829 -3.6215 -4.0135
-2.6929 -3.7415 -4.0835
-2.6929 -3.7415 -4.0835
-2.6929 -3.8015 -4.1135
-2.8729 -3.8315 -4.3235
-2.3929 -4.3015 -4.0135
-2.7829 -4.6615 -4.6135
-4.1929 5.7885 -1.3635
-4.0229 5.5985 -1.2635
-2.4929 5.5685 0.3965
-2.5129 5.5085 0.3465
-2.7829 4.2185 -0.5435
-2.7629 4.2285 -0.5235
-2.0929 5.0685 0.5865
-2.0529 4.0685 0.1765
-2.3429 -0.4315 -2.2035
-2.0629 -2.1315 -2.6935
-2.0629 -2.1315 -2.6935
-2.0629 -2.2515 -2.7435
-2.5829 -3.2415 -3.7735
-2.6929 -4.3615 -4.4035
-2.6729 -4.3915 -4.4035
-2.6329 -4.4915 -4.4035
-2.6329 -4.4915 -4.4035
-4.0029 5.6385 -1.2535
-3.9429 5.4085 -1.2935
-3.2429 4.8185 -0.8035
-2.6929 5.6685 0.1865
-2.9229 5.0985 -0.3235
-2.8829 5.0785 -0.2935
-2.8329 5.0785 -0.2435
-2.1229 5.0985 0.5465
-2.1429 4.3785 0.1965
-2.2729 -0.5315 -2.2135
-2.3929 -1.5215 -2.8035
-2.3729 -1.6315 -2.8235
-2.2729 -2.4115 -3.0735
-2.5729 -3.4215 -3.8735
-2.8929 -3.6215 -4.3135
-2.5629 -4.0215 -4.1335
-4.3429 5.7585 -1.6035
-4.2229 5.6085 -1.5335
-3.6029 4.3585 -1.4335
-2.8629 5.1385 -0.2735
-2.4229 5.5485 0.3965
-2.3729 5.4585 0.4165
-2.3129 5.4885 0.4865
-2.3729 4.5785 0.0065
-2.1429 4.2685 0.1165
-2.3129 -0.3915 -2.2235
-2.3229 -0.4515 -2.2635
-2.4129 -1.6215 -2.9035
-2.1529 -1.8315 -2.7135
-2.4729 -3.3415 -3.7635
-2.4729 -3.3415 -3.7635
-4.3729 5.7585 -1.6635
-3.5529 5.4585 -0.9035
-3.1629 4.7685 -0.7935
-2.2929 5.5285 0.4965
-2.6529 4.7785 -0.2435
-2.5729 4.6885 -0.1935
-2.5329 4.6985 -0.1435
-2.7629 4.2685 -0.5935
-2.7029 4.2185 -0.5535
-2.0529 4.3285 0.1965
-2.0929 4.1985 0.0965
-2.1729 -1.9115 -2.8035
-2.3729 -2.2915 -3.2035
-2.4529 -3.2815 -3.7435
-4.2729 5.7285 -1.5935
-4.2629 5.6685 -1.6035
-3.9729 5.6685 -1.2935
-3.2029 4.8685 -0.8335
-3.0429 4.6785 -0.7435
-2.5929 4.7285 -0.2235
-2.7029 4.2785 -0.5635
-2.2929 -0.3615 -2.2535
-2.2629 -0.4915 -2.2835
-2.1329 -1.7715 -2.7335
-2.3729 -2.2515 -3.2135
-2.4529 -3.2715 -3.7735
-2.4529 -3.2715 -3.7735
-2.4429 -4.0915 -4.1335
-3.9329 5.5085 -1.3535
-3.0529 4.6985 -0.7735
-3.0529 4.6985 -0.7735
-2.6129 4.7585 -0.2635
-2.3329 -1.4815 -2.8435
-2.3629 -1.5315 -2.8935
-2.3129 -1.5915 -2.8735
-2.1129 -1.7415 -2.7235
-2.1529 -1.8415 -2.8135
-3.9829 5.7785 -1.3235
-3.9029 5.5085 -1.3535
-3.5829 4.3985 -1.5135
-3.2229 4.9385 -0.8835
-2.9429 4.5985 -0.7235
-2.2929 4.6385 -0.0035
-2.5529 4.2185 -0.4835
-2.4729 4.1885 -0.4135
-2.8429 -3.5915 -4.4135
-2.3729 -4.0915 -4.1335
-3.9729 5.8285 -1.3135
-3.5829 4.4085 -1.5535
-2.9429 4.6185 -0.7535
-2.2629 -0.3315 -2.3035
-2.0929 -1.8515 -2.8135
-2.0729 -2.4615 -3.0835
-3.9729 5.7785 -1.3735
-3.8829 5.7585 -1.2935
-3.9229 5.5685 -1.4135
-3.9029 5.5685 -1.3835
-2.3229 4.6485 -0.1035
-2.4729 4.1985 -0.4735
-2.2829 -1.5615 -2.9235
-2.1329 -1.6615 -2.8035
-2.5629 -3.3515 -4.0535
-3.2929 5.2585 -0.9135
-3.5529 4.4785 -1.5435
-3.2629 5.0185 -0.9835
-2.6229 4.9185 -0.3335
-2.7629 4.4785 -0.6935
-2.7229 4.4485 -0.6535
-2.3029 4.6585 -0.1135
-2.2529 -0.4115 -2.3835
-2.3029 -1.4315 -2.9135
-2.3229 -1.5015 -2.9735
-2.1029 -1.8015 -2.8635
-2.2729 -3.2315 -3.7135
-3.5729 4.4985 -1.5935
-2.6429 4.3885 -0.6235
-2.5629 4.3085 -0.5835
-2.2329 -0.2815 -2.3335
-2.0929 -1.6215 -2.8135
-2.0929 -1.6215 -2.8135
-2.2629 -3.9415 -4.0735
-2.2129 -4.0015 -4.0435
-3.9029 5.6185 -1.4635
-3.7629 5.6685 -1.2935
-3.3429 5.2085 -1.0435
-3.5629 4.5485 -1.5835
-2.6929 4.4585 -0.6835
-2.6529 4.4185 -0.6635
-2.6529 4.4185 -0.6635
-2.4829 4.2685 -0.5535
-2.2729 -1.5215 -2.9935
-2.2729 -1.5215 -2.9935
-2.1529 -3.3015 -3.6835
-2.1029 -4.2015 -4.0535
-3.7429 5.7185 -1.2835
-3.6829 5.6785 -1.2335
-3.3029 5.5185 -0.8935
-3.3029 5.5085 -0.8935
-2.3629 4.1785 -0.4935
-2.1829 -0.4215 -2.4135
-2.2929 -1.4315 -3.0035
-2.1629 -3.9115 -4.0135
-3.9029 5.6585 -1.5235
-2.4029 5.6685 0.1165
-2.3729 4.3785 -0.4435
-2.1229 -3.8815 -3.9835
-3.9429 5.6985 -1.5735
-3.9129 5.6785 -1.5535
-3.6929 5.6585 -1.3135
-3.2829 5.1885 -1.0935
-2.7629 5.2685 -0.4935
-2.6929 5.1985 -0.4435
-2.2829 4.7585 -0.2035
-2.2629 4.2785 -0.3935
-2.2629 4.1085 -0.4835
-2.2629 4.1085 -0.4835
-2.2029 -0.2315 -2.4135
-2.2629 -2.4115 -3.4935
-2.1729 -3.1715 -3.7535
-2.1729 -3.1915 -3.7535
-2.1529 -3.2015 -3.7435
-2.4729 -3.0415 -4.0035
-2.5529 -3.3115 -4.2235
-2.0929 -3.8915 -3.9935
-2.0729 -4.3515 -4.1835
-3.2929 5.2385 -1.1135
-2.4129 5.7685 0.0865
-2.5029 5.0585 -0.3435
-2.6829 -1.6215 -3.6135
-2.6829 -1.6215 -3.6135
-2.2529 -2.3715 -3.4935
-2.5129 -3.2915 -4.2035
-2.5129 -3.2915 -4.2035
-2.0829 -3.8415 -3.9935
-2.1829 -4.3215 -4.3235
-3.9429 5.7685 -1.6035
-3.4029 5.7585 -1.0335
-2.4029 5.8285 0.0865
-2.7129 5.1485 -0.5635
-2.6929 5.1785 -0.5235
-2.2929 4.8185 -0.2635
-2.1729 -0.3215 -2.4835
-2.2729 -1.4215 -3.1035
-2.2729 -1.4215 -3.1035
-2.6529 -1.5615 -3.5935
-2.7829 -1.6515 -3.7635
-2.4729 -3.0315 -4.0735
-2.4429 -3.2515 -4.1435
-2.4729 -3.2715 -4.1835
-3.9829 5.7885 -1.6835
-2.1729 4.0785 -0.5035
-2.3329 -1.2815 -3.1435
-3.5829 5.6585 -1.3335
-3.4329 5.8085 -1.1035
-3.3529 5.3685 -1.2235
-2.4729 5.8085 -0.0635
-2.2929 4.8685 -0.2935
-2.1729 -0.2315 -2.5135
-2.0629 -1.3515 -2.9135
-2.0629 -1.3515 -2.9135
-2.5229 -2.9215 -4.1335
-2.4029 -3.2315 -4.1535
-2.4029 -3.2315 -4.1535
-3.3829 5.7885 -1.0935
-2.0729 4.0685 -0.4735
-2.3129 -1.2315 -3.1635
-2.2129 -1.3415 -3.1035
-2.2129 -1.3415 -3.1035
-2.2429 -1.4215 -3.1635
-2.5829 -1.5515 -3.6035
-2.5829 -1.5515 -3.6035
-2.0629 -3.1915 -3.7935
-2.4329 -3.1415 -4.1735
-2.3529 -3.2215 -4.1235
-3.3529 5.4185 -1.2635
-2.6929 5.2585 -0.6235
-2.0829 -0.3015 -2.5135
-2.3429 -1.1715 -3.2035
-3.3729 5.4785 -1.3035
-2.8329 5.4085 -0.7435
-2.2929 4.9685 -0.3635
-2.5029 -1.5015 -3.5535
-2.4729 -1.5215 -3.5335
-2.3929 -2.9115 -4.0935
-2.3729 -3.0215 -4.1135
-2.8329 5.3585 -0.8035
-2.8229 5.3485 -0.8035
-2.8029 5.3085 -0.7835
-2.7329 3.8685 -1.3735
-2.3729 -1.4515 -3.4235
-3.3729 5.5885 -1.3135
-3.2229 5.5085 -1.1935
-2.3629 5.8085 -0.1235
-2.3429 5.2685 -0.3435
-2.0729 -0.2215 -2.5635
-2.1629 -1.4215 -3.2235
-3.6429 5.7085 -1.5935
-2.8429 5.4685 -0.8235
-2.1729 -1.3115 -3.2035
-2.3829 -1.4315 -3.4935
-3.6729 5.7585 -1.6235
-3.2129 5.5385 -1.2335
-2.6629 3.8185 -1.4235
-2.5829 3.8785 -1.3035
-3.6829 5.7885 -1.6635
-2.1029 4.9885 -0.3135
-2.6729 3.8685 -1.4435
-2.5529 3.9485 -1.2835
-2.2529 -1.2215 -3.3135
-2.2529 -1.2215 -3.3135
-2.2529 -1.4115 -3.4035
-2.2629 5.0685 -0.4935
-2.6729 3.9285 -1.4435
-2.1329 -1.2815 -3.2435
-2.1529 -1.3815 -3.3135
-2.1829 -3.2415 -4.2035
-2.0729 5.1585 -0.2635
-2.6029 3.9085 -1.4135
-2.1129 -1.2615 -3.2535
-2.1629 -3.0315 -4.1135
-2.2529 5.1185 -0.5235
-2.0529 5.0685 -0.3235
-2.2629 -1.0215 -3.3335
-2.5729 3.9385 -1.4335
-2.0729 -1.3115 -3.2935
-2.1529 -3.3215 -4.3035
-2.2329 -3.3615 -4.4135
-2.4029 5.2785 -0.6735
-2.0729 -1.2415 -3.3035
-2.4029 -1.2615 -3.6635
-2.1929 -3.3415 -4.3935
-2.3829 5.3685 -0.6435
-2.4529 4.9885 -0.8835
-2.1929 4.7485 -0.7135
-2.1929 -1.1315 -3.4035
-2.3629 -1.2215 -3.6335
-3.0829 5.3885 -1.4235
-3.0029 5.3685 -1.3435
-2.4529 4.9085 -0.9535
-2.3629 4.9385 -0.8435
-2.9829 5.3785 -1.3535
-2.6229 5.0585 -1.1035
-2.5629 4.9885 -1.0735
-2.0729 5.0585 -0.5035
-3.0729 5.3985 -1.4635
-2.3629 4.9885 -0.8835
-2.0729 -1.2215 -3.4135
-3.2529 4.5585 -2.0735
-2.2929 4.9985 -0.8335
-2.3729 3.9585 -1.4035
-2.6629 3.4485 -1.9435
-2.6629 3.4485 -1.9435
-3.5229 4.4885 -2.4335
-2.2129 -0.9315 -3.4935
-2.2529 -1.0315 -3.5835
-3.4629 4.5085 -2.3835
-2.1929 5.2885 -0.6535
-2.1829 5.2685 -0.6635
-2.0529 5.2285 -0.5435
-2.4529 3.7785 -1.6235
-2.4229 3.7685 -1.6035
-2.2229 -0.8815 -3.5135
-2.2329 -0.8815 -3.5235
-2.2829 -0.9415 -3.6035
-2.2829 -0.9415 -3.6035
-2.4529 -1.0115 -3.8235
-3.4929 5.7585 -1.8835
-3.4429 5.7885 -1.8135
-3.4529 4.5285 -2.4035
-3.4529 4.5285 -2.4035
-2.6529 4.2785 -1.6435
-2.4529 3.7885 -1.6635
-2.5829 3.3885 -1.9835
-2.5529 3.3785 -1.9435
-2.3029 -0.8415 -3.6135
-3.4929 5.8285 -1.8835
-2.8429 4.3885 -1.8335
-2.6729 4.2985 -1.6835
-2.4729 -0.9215 -3.8735
-3.0429 5.5585 -1.5435
-3.1629 4.5785 -2.1335
-2.8629 4.3985 -1.8835
-3.0629 5.5985 -1.5835
-2.8329 5.7685 -1.2535
-3.1329 4.3185 -2.2435
-2.5329 4.8885 -1.3335
-2.2629 4.0785 -1.4135
-2.1529 -0.9115 -3.5835
-3.1629 5.8185 -1.6235
-3.5629 4.8785 -2.4835
-3.1029 4.3885 -2.2135
-2.3629 5.2585 -1.0135
-2.2829 5.3585 -0.8835
-2.5229 4.9285 -1.3435
-2.0729 4.8785 -0.8735
-2.2429 -1.1315 -3.8135
-3.1529 5.6985 -1.6935
-2.7629 5.3885 -1.4235
-2.4329 5.3185 -1.0835
-2.4029 5.2985 -1.0735
-2.6929 4.3685 -1.8035
-3.1629 5.7585 -1.7135
-2.7129 5.5585 -1.3135
-3.1629 4.6685 -2.2035
-2.6829 4.4385 -1.7935
-2.6829 4.4385 -1.7935
-2.0929 4.9585 -0.9235
-3.3029 5.8185 -1.8635
-3.5529 4.8585 -2.5835
-2.6729 5.6285 -1.2735
-2.4429 5.3685 -1.1335
-2.4129 5.3485 -1.1135
-2.2929 5.4385 -0.9435
-2.3929 4.2685 -1.5935
-3.1629 5.7885 -1.7635
-3.4829 4.8285 -2.5435
-3.1729 4.6985 -2.2635
-2.2929 5.4585 -0.9635
-2.0829 5.2585 -0.8335
-2.0929 5.0085 -0.9635
-2.3429 3.7685 -1.7935
-2.7629 5.5685 -1.4635
-2.4329 5.4685 -1.1435
-2.4229 5.4185 -1.1535
-2.0929 5.2685 -0.8735
-2.2329 4.3785 -1.4235
-2.1729 -0.7015 -3.7035
-3.4929 4.8685 -2.6035
-3.4429 4.7485 -2.6035
-2.1229 5.0885 -1.0135
-2.0929 5.0585 -0.9935
-2.2029 4.4085 -1.4135
-2.6329 5.7685 -1.2835
-2.7429 5.4785 -1.5335
-3.1529 4.7685 -2.3035
-3.1129 4.7785 -2.2535
-2.3329 5.6785 -0.9935
-2.3829 5.5385 -1.1135
-2.6629 4.8585 -1.7335
-2.1429 5.4485 -0.9035
-2.3029 4.2985 -1.6035
-2.6229 5.8285 -1.2735
-3.1129 4.7885 -2.2835
-3.4529 4.7785 -2.6835
-2.4029 5.5785 -1.1835
-2.6729 4.8585 -1.8035
-2.2429 5.3785 -1.1035
-3.0129 5.8285 -1.7635
-2.0529 5.2085 -1.0135
-2.2229 4.3685 -1.5735
-2.7629 5.5485 -1.6435
-2.3929 5.6685 -1.2035
-2.1229 -0.5415 -3.7635
-2.1029 -0.6115 -3.7735
-2.7629 5.5785 -1.6635
-2.0829 -0.5115 -3.7435
-3.5229 4.9585 -2.8135
-3.4829 4.8685 -2.8035
-3.4829 4.8685 -2.8035
-2.5929 4.7585 -1.8935
-3.4929 4.9885 -2.8035
-2.5429 4.8185 -1.8535
-2.4529 5.8185 -1.3535
-2.5029 4.8185 -1.8735
-2.0829 4.5085 -1.5635
-3.1829 4.3785 -2.9035
-2.1529 4.5985 -1.6835
-2.6029 5.0485 -2.0035
-2.2429 4.6785 -1.7835
-3.3229 4.3185 -3.1535
-2.2029 4.6985 -1.8035
-3.2529 4.3785 -3.1135
-3.2329 4.4285 -3.1035
-2.4829 4.2485 -2.3735
-2.8829 4.6785 -2.6835
-3.6629 5.0185 -3.3935
-2.2329 4.7585 -1.9635
-2.4529 3.6885 -2.6935
-3.6529 5.0585 -3.3935
-3.2729 4.6985 -3.1635
-2.3229 5.0985 -1.9435
-3.2729 5.3685 -2.8835
-3.2429 4.7685 -3.1235
-2.3129 5.1085 -1.9535
-2.2829 5.1285 -1.9235
-2.2129 4.8085 -1.9835
-2.2429 4.0085 -2.3835
-2.4029 3.7385 -2.6835
-3.1929 5.4185 -2.8035
-3.3429 4.6585 -3.3135
-2.8829 4.4885 -2.8935
-2.7429 4.3085 -2.8235
-2.2229 4.0485 -2.3835
-3.1829 5.4485 -2.8135
-2.4029 5.0785 -2.1435
-2.7229 4.3585 -2.8135
-2.6329 4.3085 -2.7335
-2.2529 4.1885 -2.3835
-2.2529 4.1885 -2.3835
-2.3229 3.7685 -2.6535
-2.2629 4.8885 -2.1035
-2.6529 4.3185 -2.7935
-3.0829 5.3985 -2.7935
-3.0829 5.3985 -2.7935
-3.3029 4.5685 -3.4035
-2.3329 3.8585 -2.6935
-2.1829 3.9085 -2.4935
-3.3929 5.1685 -3.2635
-3.3929 5.1685 -3.2635
-3.3829 5.1585 -3.2535
-3.0629 4.6385 -3.1435
-2.2429 4.9485 -2.1235
-2.1729 3.9485 -2.5035
-3.3729 4.7885 -3.4435
-3.3229 4.6185 -3.4735
-2.2629 5.0385 -2.1335
-2.2529 3.7685 -2.7035
-3.3329 5.7085 -3.0135
-3.1629 5.7585 -2.8135
-3.3729 4.8085 -3.4635
-2.5829 4.4385 -2.7935
-3.2929 5.6785 -3.0235
-3.2929 5.6785 -3.0235
-3.1829 5.2785 -3.0935
-3.0229 4.6085 -3.2235
-2.7729 4.5785 -2.9635
-2.6129 4.4085 -2.8735
-2.1329 4.1485 -2.4635
-2.1029 4.0185 -2.4835
-3.1629 5.7985 -2.8635
-3.2829 4.9585 -3.3735
-2.9329 4.6785 -3.1235
-2.9329 4.6785 -3.1235
-2.2829 4.9585 -2.2935
-2.0629 4.1285 -2.4335
-2.0829 4.0685 -2.4835
-2.0529 3.7985 -2.5735
-3.0829 5.5385 -2.9335
-3.0829 5.5085 -2.9435
-2.9129 5.6685 -2.6835
-2.9029 4.7985 -3.0735
-2.8929 4.6685 -3.1135
-2.2329 4.8085 -2.3335
-2.0729 4.1485 -2.4635
-2.0429 4.1085 -2.4535
-3.1829 5.5785 -3.0435
-2.9229 5.6885 -2.7135
-3.1529 5.5585 -3.0835
-3.1529 5.0785 -3.3035
-2.8429 5.3085 -2.8735
-2.9429 4.8885 -3.1635
-2.1129 5.7885 -1.8535
-2.2829 5.0085 -2.4035
-2.1829 3.5885 -2.9435
-2.8829 5.7885 -2.7235
-2.1029 5.8085 -1.8735
-3.0029 5.4385 -3.0435
-2.8129 5.2585 -2.9135
-3.1429 5.0585 -3.4035
-2.9229 5.1585 -3.1135
-2.9129 4.9485 -3.2035
-2.3229 5.1085 -2.5035
-2.9129 5.3385 -3.0535
-2.9129 5.3385 -3.0535
-2.2929 5.1385 -2.4835
-2.2929 5.1385 -2.4835
-2.1729 4.5885 -2.5935
-3.0229 5.5885 -3.0935
-3.1829 5.0685 -3.5035
-2.5029 5.2785 -2.6835
-2.2729 4.6785 -2.6935
-2.0729 4.5085 -2.5535
-2.4429 5.0885 -2.7235
-2.0929 4.5685 -2.5935
-3.0329 5.6885 -3.1135
-3.0129 5.6785 -3.1035
-2.7329 5.0885 -3.0735
-2.7229 5.0885 -3.0535
-2.7629 5.1685 -3.0935
-2.7629 5.1685 -3.0935
-2.6329 4.9885 -3.0335
-2.6329 4.9885 -3.0335
-2.5629 4.8985 -3.0035
-2.5629 4.8985 -3.0035
-2.3029 4.7385 -2.8035
-2.9729 5.7785 -3.0735
-2.6729 5.0785 -3.0735
-2.6729 5.0785 -3.0735
-2.3829 4.7785 -2.8935
-2.5729 5.4285 -2.8335
-2.4629 5.2185 -2.8035
-2.2829 5.2585 -2.5935
-2.4829 4.8785 -2.9935
-2.5829 5.4485 -2.8735
-2.4629 5.2485 -2.8235
-2.3929 5.4385 -2.7035
-2.4229 5.3285 -2.8135
-2.2929 5.3185 -2.6735
-2.2529 5.3285 -2.6235
-2.3229 5.3785 -2.7035
-2.0529 5.2685 -2.4735
-2.4329 5.3585 -2.8735
-2.2929 5.3785 -2.7135
-2.3929 5.3985 -2.8835
-2.2829 5.4285 -2.7435
-2.1729 5.3985 -2.6735
-2.2729 5.4785 -2.7735
-2.1729 5.4285 -2.6935
-2.0629 5.1685 -2.7135
-2.0729 -5.1815 5.2365
-2.0729 -5.1215 5.2265
-3.9629 1.2385 7.9365
-2.1929 0.3385 9.4565
-3.8729 1.1385 7.8865
-3.1929 1.4585 8.7665
-3.8529 1.1385 7.8365
-3.1829 1.4685 8.7265
-3.2229 1.6385 8.6765
-3.1829 1.5685 8.6965
-3.2229 1.6285 8.6365
-3.8829 1.0285 7.6065
-3.8629 0.9585 7.5865
-2.2329 0.3485 9.1265
-2.1929 0.3285 9.0965
-3.5229 2.4385 8.5565
-3.4829 2.4485 8.5965
-2.1829 0.3185 9.0765
-3.4929 2.4185 8.5565
-3.8329 1.1685 7.6065
-2.1929 0.3385 9.0465
-3.5029 2.4185 8.5065
-3.4029 2.5185 8.6665
-3.8429 1.0685 7.5065
-3.6529 1.0385 7.7065
-3.6429 1.0085 7.7065
-3.3729 2.3885 8.6065
-3.1729 1.5085 8.4265
-3.3829 2.4585 8.6065
-2.1029 0.2685 9.0265
-3.4529 2.4785 8.4965
-3.7829 1.2685 7.5865
-3.5729 1.4585 7.9065
-3.5829 1.1385 7.7365
-3.2729 1.1685 8.0965
-2.1729 0.2685 8.9165
-3.3629 2.4185 8.5365
-3.5429 1.3985 7.8765
-3.4929 1.0685 7.7865
-2.8029 0.2785 8.1865
-2.0829 0.3485 9.0165
-2.2329 0.0585 8.7165
-3.3929 2.4685 8.5065
-3.3529 1.0485 7.8965
-3.2729 1.1085 8.0165
-2.8329 0.3385 8.1465
-2.8229 0.2785 8.1265
-2.8929 0.0885 7.9665
-2.1929 0.2685 8.8265
-3.4629 1.1685 7.7965
-3.4029 0.9585 7.7665
-2.9029 0.1085 7.9365
-2.0929 -1.1615 8.2565
-3.4229 2.4985 8.4165
-3.7729 1.2585 7.4765
-3.2429 1.1685 8.0165
-3.7629 1.1985 7.4165
-3.1829 1.6385 8.2765
-3.2129 1.1685 8.0165
-2.7429 0.1585 8.0765
-2.0529 -1.2015 8.2165
-4.1729 1.1985 6.9365
-3.7329 0.9085 7.2965
-3.4329 1.0785 7.7065
-2.7129 0.1785 8.0965
-3.7329 0.9485 7.2865
-3.2029 1.7785 8.2565
-3.2029 1.6785 8.2065
-3.4729 1.1585 7.6665
-2.7829 0.3785 8.0865
-4.1829 1.2685 6.8965
-3.6529 1.2885 7.5065
-2.1729 0.1385 8.6165
-3.7529 0.9885 7.2165
-2.8029 0.1585 7.8965
-3.4529 1.4685 7.7365
-2.9729 1.5585 8.3265
-2.7929 0.3785 7.9865
-2.1529 0.2985 8.6565
-4.1829 1.3485 6.8465
-4.1629 1.3385 6.8665
-3.2729 2.5585 8.4165
-3.7329 1.0785 7.2265
-3.0929 1.9385 8.3365
-2.9629 0.9585 8.0265
-2.9829 0.2485 7.6865
-2.0629 0.8985 8.9965
-2.0529 0.2585 8.7165
-2.8429 -3.1215 6.2865
-3.2629 1.2085 7.7765
-2.9529 1.5085 8.2565
-2.8729 0.3285 7.8065
-2.1329 -1.0715 7.9865
-2.8129 -3.1415 6.2765
-2.7829 -3.2015 6.2765
-3.2729 2.3585 8.2665
-3.1229 1.6185 8.0965
-3.1129 1.5985 8.0965
-3.2029 1.2385 7.8265
-3.1529 1.2485 7.8965
-2.8929 1.5385 8.3065
-2.1029 -1.0715 7.9865
-2.0829 -1.1115 7.9965
-2.8529 -2.9415 6.2965
-2.8329 -3.0215 6.2765
-3.1829 1.8585 8.1065
-2.0629 0.8785 8.8965
-2.8829 -3.0815 6.1665
-2.8629 -3.0915 6.1865
-3.4629 1.6285 7.6465
-3.4529 1.1785 7.4565
-2.7729 0.2685 7.7965
-2.1529 0.3685 8.5265
-2.1629 0.2885 8.4865
-2.7929 -3.1215 6.2165
-3.4529 1.5885 7.6165
-3.0829 1.6385 8.0565
-2.9529 1.1685 7.9865
-2.4729 1.3585 8.6065
-2.7029 0.5685 7.9765
-2.8929 -3.0815 6.0965
-2.8629 -3.1115 6.1165
-3.0629 1.6185 8.0365
-2.7329 1.0285 8.1265
-2.2029 -0.7215 7.9165
-2.4629 -3.4315 6.3765
-3.1829 1.2585 7.7065
-2.9529 1.1885 7.9265
-2.7429 0.4485 7.8165
-2.7529 0.3885 7.7865
-2.4829 0.6785 8.2165
-2.1629 0.9685 8.6965
-2.1429 0.1685 8.3565
-2.5029 -3.4615 6.2965
-3.5829 1.0585 7.1365
-2.8829 0.3185 7.5665
-2.5629 -3.4215 6.1965
-3.3529 1.5785 7.5965
-3.3629 1.1885 7.4065
-3.3729 1.0085 7.3165
-2.8829 0.3885 7.5765
-2.4129 0.7185 8.2465
-2.1229 0.3485 8.4065
-3.1329 1.7085 7.8765
-2.6829 0.4685 7.8065
-3.0129 -2.9915 5.8465
-2.7129 -3.0915 6.1265
-2.5129 -3.4115 6.2065
-3.3629 1.6285 7.5465
-3.3029 1.5885 7.5765
-3.2829 1.1085 7.3665
-2.0829 0.2585 8.3065
-2.0729 0.1585 8.2765
-3.3629 3.1785 8.2065
-3.3029 1.5285 7.5065
-3.3929 1.2385 7.2865
-3.3729 1.2185 7.2865
-2.6829 -2.3315 6.4265
-3.3029 3.2085 8.2465
-3.2929 1.1685 7.3265
-2.6929 0.4485 7.6565
-2.5229 -3.3215 6.1165
-3.2829 3.2485 8.2665
-3.3829 1.9185 7.5465
-2.3929 0.6885 8.0865
-2.0829 0.3585 8.2765
-2.8829 -3.0415 5.8165
-3.3329 3.2385 8.1865
-2.9929 1.5685 7.7865
-2.3729 0.7485 8.1065
-2.4929 -3.3115 6.0965
-3.3729 1.2585 7.1965
-3.3529 1.1985 7.1965
-2.6929 0.4585 7.5865
-2.5029 -3.2415 6.0865
-2.7629 0.4785 7.4865
-3.3129 3.0585 8.0465
-2.9929 1.6285 7.7365
-2.4029 0.7985 8.0065
-2.0629 0.3585 8.1865
-2.9729 1.6685 7.7465
-2.7429 0.4485 7.4365
-2.6729 0.4785 7.5265
-2.3429 0.8485 8.0765
-2.4629 -2.2415 6.5165
-2.6329 -3.1915 5.8765
-2.5329 -3.1915 5.9665
-3.2429 1.5685 7.3565
-4.0629 -0.4115 5.4965
-2.2829 0.9385 8.1065
-2.2829 0.6485 7.9765
-2.2829 0.5585 7.9265
-2.2629 0.1585 7.7665
-2.5129 -3.2215 5.9165
-2.4429 -3.2915 5.9765
-3.2129 1.6085 7.3465
-2.2829 0.9085 8.0565
-2.0629 0.2685 8.0165
-2.4329 -2.0715 6.5165
-3.8829 3.1685 7.2965
-4.0329 1.5885 6.3965
-3.1929 1.6885 7.3865
-2.5929 0.4785 7.4865
-2.3829 -0.0815 7.4665
-3.5929 2.9085 7.4665
-2.2529 0.1785 7.7065
-3.3129 1.3385 7.0265
-2.3829 0.8185 7.8265
-2.0629 0.3285 7.9565
-3.8629 3.2785 7.2865
-3.7429 3.0085 7.3065
-3.6229 2.9485 7.4065
-3.5629 2.9085 7.4465
-3.8729 3.2885 7.2465
-3.7429 3.0485 7.2865
-2.3029 0.6585 7.7865
-2.3929 -0.1215 7.3165
-2.5829 -3.0015 5.7665
-2.5629 -3.2115 5.6865
-3.7529 3.0485 7.2465
-2.2629 -1.7715 6.6665
-2.6229 -3.0215 5.6865
-2.5629 -3.1515 5.6865
-2.5129 -3.1615 5.7365
-2.4329 0.9685 7.7265
-2.4829 0.8585 7.6165
-2.5629 -3.1715 5.6465
-2.5529 -3.2215 5.6365
-2.9229 -3.8015 4.9565
-2.8929 -3.8015 4.9865
-4.2529 1.7785 6.0465
-2.4029 1.0285 7.7565
-2.9029 -3.7715 4.9565
-2.2629 0.6985 7.7265
-3.8829 3.2585 7.0865
-4.1729 1.8085 6.0865
-2.9029 1.6585 7.4265
-2.8929 -3.7615 4.9065
-2.1929 -4.6515 5.2765
-3.8829 3.2685 7.0465
-3.8329 3.1785 7.0665
-4.1329 1.8485 6.1165
-4.2829 1.2785 5.6865
-3.8429 3.1585 7.0165
-4.1529 1.7985 6.0365
-2.3729 0.2085 7.2765
-4.2529 1.3485 5.6865
-2.9329 -3.7015 4.7965
-2.1629 -4.3715 5.3365
-4.2229 1.3285 5.6665
-2.1429 -1.0215 6.8865
-3.8529 1.7685 6.2165
-3.8229 1.7685 6.2065
-2.2429 -4.5815 5.0165
-2.1229 -4.9015 4.9965
-2.0929 -4.8915 4.9965
-3.9929 0.3485 5.2865
-2.4929 -2.0815 5.8265
-3.6629 3.0785 6.8865
-2.8729 -3.5315 4.6965
-3.9429 1.8485 5.9665
-4.1229 0.2685 5.0365
-2.7729 1.6585 7.1865
-3.8829 1.8685 6.0065
-4.0629 0.3685 5.1165
-3.6729 3.0485 6.7565
-3.6229 2.9885 6.7765
-3.6029 2.9685 6.7465
-3.5729 2.8885 6.7465
-2.7629 1.7185 7.0665
-2.7129 -2.4315 5.1965
-2.8229 -2.2015 5.1465
-2.7329 -2.5115 5.1065
-3.7829 1.8085 5.9065
-2.7129 -2.5015 5.0965
-2.6929 -2.4115 5.0865
-2.4229 -3.2315 4.9765
-3.4529 2.9585 6.6465
-2.4429 -3.1515 4.9565
-2.4029 -3.1715 4.9965
-3.9529 2.8385 5.9765
-2.3829 -3.2415 4.8865
-3.3829 2.8985 6.5765
-3.3829 2.9385 6.5665
-3.5529 1.8785 5.8765
-2.1429 -2.7815 5.2965
-2.3129 -3.2115 4.9065
-2.2729 -3.2015 4.9565
-3.3729 2.9185 6.5365
-3.5629 1.8685 5.8465
-2.2829 -1.6615 5.5965
-3.4829 1.9085 5.8865
-2.2229 -3.0715 4.9865
-2.2829 -1.5715 5.5765
-3.7429 2.8585 5.9765
-2.2029 -3.5015 4.7165
-2.2029 -2.7015 5.0565
-2.1729 -2.6615 5.0765
-2.0629 -1.4915 5.6765
-3.3829 1.8785 5.7465
-3.3829 1.8485 5.7365
-3.4429 1.8185 5.6265
-3.0829 2.7985 5.5365
-3.0629 2.8085 5.5665
-3.7729 4.7085 5.4065
-2.8429 4.4085 6.2565
-2.8829 4.1885 6.0765
-2.8429 2.7685 5.4665
-2.8729 4.2285 6.0765
-2.8429 2.7685 5.4365
-2.8129 2.7385 5.4565
-2.6729 1.8885 5.2265
-2.7029 4.3285 6.2865
-2.7029 4.3285 6.2465
-2.8329 4.1785 6.0065
-2.7829 2.7385 5.4065
-2.5629 1.8885 5.2265
-2.6929 2.7385 5.4065
-2.6929 2.6985 5.3565
-2.3429 3.7885 6.2165
-2.5029 1.8585 5.1465
-4.0129 4.7585 4.7965
-2.3129 3.7985 6.2165
-3.0929 5.6785 6.1665
-2.0629 4.5585 6.7865
-2.0829 4.4885 6.7065
-2.0729 4.4085 6.6665
-2.1329 4.0685 6.4565
-2.4529 1.8785 5.0965
-2.2329 1.8585 5.3265
-2.2329 1.7885 5.2865
-3.3229 5.1585 5.6165
-2.6729 4.3485 5.9565
-2.2329 4.3985 6.4665
-2.0729 4.5385 6.7065
-2.0729 4.4185 6.6465
-3.4329 5.0985 5.4365
-3.3929 5.0885 5.4865
-2.6029 4.1785 5.9265
-2.5829 4.1785 5.9465
-2.1729 4.4085 6.5065
-2.1129 4.4685 6.6065
-2.0629 4.2185 6.5465
-2.4029 1.8585 5.0765
-2.2129 1.8485 5.2865
-2.1829 1.7985 5.2865
-3.0929 4.5285 5.5265
-2.1329 4.0985 6.3765
-2.1629 1.7985 5.2865
-3.3829 5.0885 5.4365
-3.3729 5.1785 5.4665
-2.1229 4.1285 6.3465
-2.1129 4.1085 6.3365
-2.3629 2.6785 5.4165
-2.5729 4.2685 5.8865
-2.0929 4.2085 6.3865
-3.4129 5.1985 5.3765
-2.0829 4.2585 6.3865
-3.1729 5.8285 5.8965
-3.2829 3.9485 4.9065
-2.1229 3.5885 6.0065
-2.0929 3.5885 6.0065
-2.4729 2.6685 5.1765
-3.1529 5.2485 5.5965
-2.9729 4.4885 5.4365
-2.2629 1.8485 4.9965
-2.4029 2.6085 5.1665
-2.2029 1.8285 4.9865
-2.7229 5.7185 6.1565
-3.1329 3.9685 4.8965
-3.1029 3.9785 4.9065
-2.7029 5.7285 6.1165
-2.2129 1.7385 4.8065
-2.1029 1.7685 4.9465
-2.1229 1.7085 4.8965
-2.6629 5.6885 6.1165
-2.2629 3.8885 5.6965
-2.2329 2.4785 5.0765
-2.0829 1.7685 4.9065
-2.2029 2.4485 5.0665
-3.0229 3.9985 4.8465
-3.0129 3.9885 4.8565
-2.2329 2.5085 5.0165
-2.0729 1.7585 4.7865
-2.1729 3.6685 5.5065
-2.1529 2.3985 4.9065
-2.2729 2.5085 4.7565
-2.2529 2.5085 4.7365
-2.1229 2.3785 4.7965
-2.1029 2.3585 4.8065
-2.5829 5.8285 5.8265
-2.0929 2.3585 4.7065
-2.0829 2.3085 4.7065
-2.4729 5.5885 5.6965
-2.3829 5.5785 5.6765
-2.3029 5.5785 5.6965
-2.1729 5.5485 5.6265
-2.1729 5.5085 5.5465
-2.0929 4.7485 5.1165
0.4271 0.7585 -6.2035
0.4271 0.6785 -6.2535
0.5071 0.7985 -6.2035
0.5371 0.7685 -6.2935
0.6271 0.8285 -6.2035
0.6171 0.7885 -6.3235
0.7171 0.8385 -6.2135
0.6471 0.7485 -6.3735
0.7271 0.8585 -6.3035
0.7871 0.9085 -6.2835
0.7871 0.9785 -6.3035
0.8171 1.1685 -6.2135
0.2271 -2.1215 -8.4835
0.8271 1.0785 -6.3235
0.2271 -2.0815 -8.5035
0.8271 0.9785 -6.4035
0.2171 -2.0715 -8.5535
0.8371 0.8685 -6.4835
0.9271 1.2285 -6.2535
0.9271 1.1785 -6.3035
1.0171 1.2685 -6.2035
0.9171 1.0985 -6.4235
1.0271 1.2285 -6.2835
0.9171 0.9785 -6.5235
1.0371 1.1885 -6.3235
0.9371 0.8985 -6.5735
1.0271 1.1485 -6.3935
1.2271 1.2285 -6.1935
1.2271 1.2085 -6.2035
1.1371 1.2385 -6.2835
1.1071 1.1985 -6.3335
1.0471 1.1285 -6.4735
1.0271 1.0885 -6.5135
1.1871 1.2285 -6.3035
1.1171 1.1785 -6.4035
1.3371 1.0785 -6.2435
1.1371 1.1785 -6.4035
1.0271 0.9885 -6.6235
0.6771 -1.1115 -8.0135
1.2571 1.1885 -6.3035
1.0871 1.1085 -6.5235
0.6771 -1.0215 -8.0135
0.3171 -0.9315 -8.3635
1.4371 0.9785 -6.2335
1.4071 1.0285 -6.2435
1.3371 1.0985 -6.2835
1.3071 1.1285 -6.3035
1.1371 1.1485 -6.4935
1.0571 0.8685 -6.7035
0.4671 -0.4815 -8.0335
1.5171 0.9785 -6.2035
1.4471 1.0185 -6.2635
1.2371 1.1885 -6.4135
1.2371 1.1885 -6.4135
1.1171 1.0785 -6.6035
1.4271 1.0785 -6.2935
0.5371 -0.8415 -8.1935
1.5371 1.0485 -6.2035
1.3271 1.1485 -6.4035
1.2271 1.1685 -6.5035
0.5271 -0.4815 -8.0735
0.5271 -0.5315 -8.0835
0.5471 -0.7015 -8.1435
1.1371 1.0385 -6.6835
1.1271 0.9885 -6.7235
0.5571 -0.6315 -8.1335
0.5571 -0.7315 -8.1835
1.5171 1.0885 -6.2835
1.4671 1.1185 -6.3135
1.1871 1.1085 -6.6335
0.6471 -1.1215 -8.3035
1.4271 1.1085 -6.3935
1.2271 1.1485 -6.6035
0.7871 -1.1115 -8.1735
0.5471 -1.0115 -8.3835
1.4271 1.1185 -6.4235
1.3271 1.1685 -6.5135
1.3271 1.1685 -6.5135
0.6371 -0.4215 -8.0435
0.6071 -0.5115 -8.1135
1.6371 1.1485 -6.2035
1.5371 1.1385 -6.3335
1.2171 1.0785 -6.7035
1.1271 0.8785 -6.9035
0.6371 -0.3415 -8.0335
0.6071 -1.0615 -8.4135
0.5671 -1.1115 -8.4735
0.5871 -1.3015 -8.5435
0.6471 -1.1215 -8.4235
0.6071 -1.2115 -8.5135
0.5671 -1.2615 -8.5835
1.4371 1.1585 -6.4935
1.3271 1.1685 -6.6135
1.2271 0.9785 -6.8135
0.6871 -0.1615 -7.9635
0.6071 -1.3215 -8.6035
1.7271 1.1585 -6.2135
1.6371 1.1585 -6.3135
1.5371 1.1685 -6.4135
1.2371 1.0585 -6.8035
1.1771 0.9085 -6.9435
1.1671 0.7785 -7.0135
0.7971 -1.0215 -8.2935
0.4471 -1.0015 -8.6635
1.3171 1.1585 -6.7035
1.2171 0.9685 -6.9035
1.1771 0.8785 -6.9935
0.7771 0.1085 -7.8035
0.7571 0.0885 -7.8235
0.7571 0.0485 -7.8635
1.8071 1.1485 -6.2035
1.7271 1.1585 -6.2835
1.6171 1.1685 -6.4035
0.7671 0.2685 -7.7735
0.8671 -0.9315 -8.2335
0.4971 -0.9715 -8.6635
1.6371 1.1685 -6.4035
0.8971 -0.9115 -8.2235
1.7771 1.1385 -6.3035
1.3171 1.1085 -6.8235
1.2271 0.9585 -6.9935
0.8371 0.3085 -7.7335
1.9471 1.0085 -6.2135
1.8371 1.0685 -6.3035
1.7171 1.1685 -6.3935
1.6271 1.1685 -6.4935
1.4171 1.1885 -6.7035
1.2871 1.0085 -6.9435
2.0071 0.9685 -6.2035
1.7771 1.1285 -6.3835
1.5471 1.1885 -6.5935
1.3271 1.0685 -6.9035
1.9371 0.9785 -6.3035
1.8471 1.0285 -6.3835
1.3071 0.9985 -6.9935
0.5371 -0.4615 -8.5335
2.0071 0.9385 -6.2735
1.8971 0.9585 -6.3835
1.6171 1.1685 -6.6035
1.4271 1.1785 -6.8035
1.2471 0.5585 -7.3035
0.6671 -0.7415 -8.5635
0.5671 -0.4915 -8.5635
1.8671 0.9385 -6.4635
1.7271 1.1485 -6.5135
1.5271 1.1985 -6.7135
1.2171 0.8785 -7.2135
0.9971 0.6085 -7.5835
0.9871 -0.7115 -8.2335
0.6071 -0.5015 -8.5535
0.5971 -0.4815 -8.5635
1.9871 0.9185 -6.3735
1.9471 0.9085 -6.4235
1.9071 0.9185 -6.4635
1.4071 1.0985 -6.9335
1.2971 0.9885 -7.1035
1.2971 0.9885 -7.1035
0.7171 -0.7315 -8.5835
2.0171 0.8785 -6.3935
1.7571 1.0985 -6.5735
1.7071 1.1385 -6.6135
1.6271 1.1685 -6.6935
1.4471 1.1485 -6.9035
0.7271 -0.6215 -8.5435
1.9371 0.8985 -6.5035
1.8571 0.9085 -6.5935
1.5371 1.1985 -6.8035
1.4371 1.0685 -7.0035
2.0271 0.8385 -6.5035
2.0271 0.8385 -6.5035
1.9271 0.8885 -6.5935
1.7271 1.1485 -6.6935
1.3271 0.9885 -7.2035
0.7871 -0.5315 -8.5335
1.8671 0.8885 -6.6935
1.6271 1.1785 -6.8135
1.5371 1.1885 -6.9135
1.4271 1.0385 -7.1035
2.0071 0.8385 -6.5935
1.4971 1.1085 -7.0435
1.3971 1.0185 -7.1935
1.3171 0.9785 -7.2935
1.9271 0.8785 -6.7035
1.9271 0.8785 -6.7035
1.7171 1.1585 -6.8035
1.6271 1.1785 -6.8935
1.5271 1.1685 -7.0035
2.0171 0.8085 -6.6735
1.9871 0.8385 -6.6935
1.8571 0.8985 -6.8035
1.5071 1.0885 -7.1035
1.4471 1.0585 -7.1835
1.1571 -1.2515 -8.6135
1.9171 0.8685 -6.7935
1.3271 0.9585 -7.4035
1.2171 0.7685 -7.6135
1.1571 -0.7415 -8.4035
1.9871 0.8085 -6.7735
1.6271 1.1685 -7.0035
1.4071 1.0185 -7.3235
1.2871 0.8885 -7.5235
1.8771 0.8885 -6.8935
1.7671 1.1085 -6.9135
1.5271 1.0985 -7.1935
1.2071 0.7685 -7.7035
1.9171 0.8585 -6.9035
1.7171 1.1485 -6.9935
1.6171 1.1685 -7.0935
1.3271 0.9585 -7.5035
1.1671 0.6785 -7.8235
0.9471 -0.2915 -8.5235
1.9671 0.8185 -6.8935
1.7871 1.0885 -6.9735
1.4171 1.0085 -7.4135
1.2971 0.8985 -7.6135
1.2071 -0.8115 -8.5235
1.2071 -0.9315 -8.5835
1.9771 0.8085 -6.9235
1.7571 1.1085 -7.0135
1.5171 1.0985 -7.2935
1.1971 0.7785 -7.8035
1.1671 0.6685 -7.8935
1.3271 -0.2115 -8.1335
1.2371 -1.0115 -8.6235
1.9171 0.8485 -7.0135
1.7071 1.1285 -7.1035
1.4071 0.9985 -7.5035
1.2871 0.8885 -7.6835
1.7371 1.1085 -7.1135
1.6271 1.1385 -7.2135
1.9971 0.7685 -7.0135
1.9671 0.7985 -7.0235
1.8971 0.8585 -7.0835
1.7871 1.0585 -7.1435
1.7071 1.1185 -7.2035
1.6271 1.1285 -7.2935
1.5171 1.0985 -7.4235
1.2871 0.9085 -7.7735
1.1571 0.6785 -8.0235
1.3071 -0.9115 -8.6235
1.9571 0.8085 -7.1035
1.4171 0.9885 -7.6135
1.8771 0.8385 -7.2135
1.7771 1.0585 -7.2135
1.6771 1.1085 -7.3035
1.2371 0.8685 -7.9035
1.1871 0.7685 -8.0135
1.3271 -0.8415 -8.6235
1.9371 0.7985 -7.1835
1.6071 1.1285 -7.3935
1.5171 1.0985 -7.5135
1.7771 1.0485 -7.2835
1.7271 1.0885 -7.3135
1.6271 1.1085 -7.4135
1.4171 0.9785 -7.7135
1.3371 0.9585 -7.8035
1.8871 0.8285 -7.2935
1.8671 0.8485 -7.3035
1.2271 0.8785 -7.9935
1.1871 0.7685 -8.0935
1.1371 0.6785 -8.1935
1.5171 1.0985 -7.6035
1.4371 1.0585 -7.7035
1.1671 0.4185 -8.3035
1.3371 -0.6315 -8.6135
1.9471 0.7985 -7.3035
1.7371 1.0885 -7.3935
1.6371 1.1085 -7.4935
1.6271 1.1185 -7.5035
1.4171 0.9685 -7.8035
1.1371 0.5785 -8.3035
1.3971 -0.6915 -8.6235
1.7771 1.0285 -7.4035
1.2171 0.8685 -8.1035
1.1371 0.3585 -8.4235
1.3971 -0.6615 -8.6235
0.8671 0.3485 -8.7335
2.0071 0.7685 -7.3035
1.9071 0.8285 -7.3935
1.8471 0.8785 -7.4235
0.9271 0.3585 -8.7035
1.9271 0.8085 -7.4035
1.7271 1.0885 -7.4935
1.5271 1.1085 -7.7035
1.3271 0.9485 -8.0035
0.8771 0.4285 -8.7435
0.8371 0.4185 -8.7935
1.7771 1.0285 -7.4935
1.6671 1.1085 -7.5835
1.6271 1.1285 -7.6135
1.2071 0.8885 -8.2035
0.9271 0.4585 -8.7135
0.8471 0.4585 -8.7935
2.0171 0.7485 -7.4035
1.8471 0.8985 -7.5135
1.8271 0.9285 -7.5235
1.0571 0.5785 -8.5335
1.0471 0.4085 -8.6335
1.9171 0.8385 -7.5035
1.3971 0.9885 -8.0135
1.7771 1.0585 -7.5935
1.7471 1.0785 -7.6035
1.6271 1.1285 -7.7135
1.3371 0.9585 -8.1135
1.2071 0.8885 -8.2935
1.1271 0.6585 -8.4935
2.0071 0.7485 -7.5135
1.8271 0.9585 -7.6135
1.6871 1.1185 -7.6935
1.6571 1.1085 -7.7235
1.9571 0.7885 -7.5835
1.9171 0.8585 -7.5935
1.6171 1.1185 -7.7935
1.5271 1.0985 -7.9135
1.3271 0.9585 -8.1935
1.0971 0.6985 -8.5735
0.9171 0.6585 -8.7935
1.7471 1.0685 -7.7135
1.6371 1.1085 -7.8135
1.2071 0.8985 -8.3935
1.0171 0.7085 -8.6935
2.0071 0.7385 -7.6135
1.8671 0.9085 -7.6935
1.7871 1.0385 -7.7235
1.4371 1.0685 -8.0935
1.4371 1.0685 -8.0935
1.3871 1.0185 -8.1735
0.9271 0.7885 -8.7935
1.9971 0.7385 -7.6635
1.9471 0.7985 -7.6835
1.9071 0.8685 -7.7035
1.7271 1.0785 -7.8035
1.6271 1.0985 -7.9035
1.5371 1.0885 -8.0035
1.3271 0.9585 -8.3035
1.8271 0.9385 -7.7935
1.7771 1.0285 -7.8035
1.2171 0.8985 -8.4835
1.0971 0.7785 -8.6835
1.0071 0.7785 -8.7735
1.8471 0.8985 -7.8235
1.5171 1.0985 -8.1035
1.4271 1.0685 -8.2035
1.9471 0.7985 -7.7935
1.9171 0.8485 -7.8035
1.7771 1.0285 -7.8735
1.7271 1.0785 -7.9035
1.6271 1.0985 -8.0035
1.5371 1.0985 -8.1035
1.3171 0.9885 -8.4035
1.0671 0.8585 -8.7335
1.8371 0.8885 -7.9035
1.4071 1.0685 -8.3035
1.2171 0.8985 -8.5935
1.1271 0.8885 -8.6935
1.9771 0.7785 -7.8435
1.9071 0.8485 -7.8935
1.7171 1.0685 -7.9935
1.5171 1.0985 -8.1935
1.3371 1.0685 -8.4035
1.2971 0.9785 -8.5035
1.0971 0.9085 -8.7635
1.9871 0.7485 -7.8835
1.8271 0.8785 -7.9935
1.7671 1.0085 -8.0035
1.6271 1.0885 -8.1135
1.0471 0.9485 -8.8235
1.2971 0.9985 -8.5635
1.8771 0.8085 -8.0435
1.8271 0.8585 -8.0835
1.7171 1.0585 -8.1035
1.5171 1.0985 -8.3035
1.4271 1.1085 -8.4035
1.1171 0.9585 -8.8135
1.0471 0.9785 -8.8835
1.9471 0.7785 -8.0135
1.8471 0.7985 -8.1135
1.5371 1.1185 -8.3135
1.2371 0.9785 -8.7035
1.1371 0.9785 -8.8135
1.3271 1.0785 -8.5935
1.1171 1.0085 -8.8635
1.9871 0.7285 -8.0735
1.9271 0.7685 -8.1135
1.8471 0.7785 -8.2035
1.7171 1.0485 -8.2135
1.6371 1.0785 -8.2935
1.5471 1.0985 -8.4135
1.5271 1.1185 -8.4235
1.4571 1.1085 -8.5035
1.4371 1.1285 -8.5235
1.1571 1.0385 -8.8735
1.9171 0.7585 -8.2035
1.8271 0.7685 -8.2935
1.7171 1.0085 -8.2935
1.6971 1.0485 -8.3135
1.6371 1.0785 -8.3935
1.4671 1.1085 -8.5635
1.3271 1.1685 -8.6935
1.8971 0.7385 -8.3035
1.5471 1.0985 -8.5135
1.5271 1.1185 -8.5335
1.9871 0.6585 -8.2735
1.9471 0.6885 -8.3035
1.8271 0.7685 -8.4035
1.7471 0.8985 -8.4335
1.5271 1.1085 -8.5735
1.2271 1.2485 -8.8335
1.6371 1.0685 -8.5035
1.4171 1.1585 -8.7035
1.9271 0.6885 -8.3935
1.8771 0.7085 -8.4435
1.7371 0.8885 -8.5135
1.5371 1.1285 -8.6235
1.3171 1.2485 -8.8035
1.2371 1.2885 -8.8735
1.9871 0.6485 -8.3935
1.8271 0.7585 -8.5135
1.8571 0.6985 -8.5335
1.7371 0.8785 -8.5835
1.6271 1.0785 -8.6135
1.5871 1.1185 -8.6435
1.9271 0.6685 -8.5135
1.8271 0.7485 -8.5935
1.7671 0.7985 -8.6235
1.5271 1.1685 -8.7135
1.3271 1.2685 -8.8935
1.8671 0.6885 -8.6035
1.6271 1.0785 -8.6835
1.8971 0.6685 -8.6135
1.7271 0.8785 -8.7035
1.6071 1.1385 -8.7135
1.5171 1.2085 -8.7835
1.4471 1.2385 -8.8435
1.4171 1.2385 -8.8735
1.8071 0.7485 -8.7035
1.5771 1.1885 -8.7635
1.8371 0.7085 -8.7235
1.7671 0.7985 -8.7635
1.5071 1.2585 -8.8335
1.7271 0.8785 -8.8035
1.8171 0.7385 -8.8035
0.4371 -0.9315 -8.3835
0.6571 -1.2115 -8.3035
0.4371 -1.1515 -8.5235
0.5771 -0.7615 -8.2335
0.5871 -0.9015 -8.2935
0.5471 -0.8315 -8.3035
1.1371 0.7985 -6.9035
0.5671 -1.3415 -8.5935
0.5371 -1.1615 -8.6035
0.6171 -1.2315 -8.5835
1.5271 1.1885 -6.4935
1.4271 1.1885 -6.6035
0.7871 0.1385 -7.8135
1.1971 0.8785 -7.1135
1.8771 0.9685 -6.4035
0.6871 -0.8015 -8.5735
1.7671 1.0985 -6.5235
1.8771 0.9085 -6.5335
0.7271 -0.5615 -8.5135
0.7171 -0.6515 -8.5635
0.7471 -0.1815 -8.3435
1.1171 -0.6015 -8.2035
0.9371 -0.7415 -8.5035
1.2171 0.7785 -7.5035
1.8371 0.9185 -6.7835
1.1871 -1.2115 -8.6035
1.1871 -0.7415 -8.4135
1.1971 -0.5515 -8.3335
1.7871 1.0885 -6.9335
1.2471 -0.7715 -8.5235
1.1671 0.5785 -8.0035
1.9971 0.7585 -7.1035
2.0171 0.7485 -7.1935
1.1471 0.5985 -8.2235
1.1671 0.4385 -8.2935
1.4071 0.9785 -7.9035
1.5071 1.0985 -7.7935
1.0471 0.4985 -8.5935
0.8971 0.5085 -8.7935
1.8571 0.9085 -7.5935
1.3871 0.9985 -8.0835
1.1271 0.7785 -8.6035
1.8071 0.9685 -7.8735
1.0471 0.8685 -8.7635
1.8871 0.8285 -7.9935
1.2271 0.9085 -8.7135
1.9771 0.7485 -8.0035
1.6471 1.0785 -8.2035
1.7371 1.0185 -8.2135
1.9771 0.7085 -8.1235
1.7871 0.8285 -8.3435
1.9971 0.6385 -8.2335
1.7171 0.9885 -8.3835
1.6871 1.0285 -8.3935
1.8971 0.7285 -8.3835
1.3671 1.1885 -8.7735
1.4271 1.1785 -8.7935
1.6871 0.9385 -8.6535
1.6871 0.9185 -8.7235
1.7671 0.7985 -8.7235
-1.8329 1.1985 9.5965
-1.6029 -0.7615 8.9565
-1.8829 0.5985 9.1165
-1.7229 1.1985 9.3965
-1.7329 -0.8415 8.4465
-1.5629 1.3585 9.5765
-1.9529 -1.2215 7.9565
-1.7129 -3.3915 7.2365
-1.8429 1.0385 9.0865
-1.8629 0.5385 8.7665
-1.7029 0.9885 9.1265
-1.8829 -1.2315 7.9065
-1.2629 1.0085 9.5965
-1.9029 0.6785 8.7065
-1.6729 -0.8515 8.2565
-1.8429 1.1785 8.9765
-1.9829 -3.0315 6.8765
-1.9929 0.1185 8.2665
-1.7829 0.8085 8.7565
-1.9429 -3.0115 6.8165
-1.8429 0.8585 8.6765
-1.9929 -0.1815 8.0165
-1.9929 0.3685 8.2365
-2.0129 -0.2315 7.9365
-1.9529 -4.6715 5.9265
-1.9929 0.5685 8.2765
-1.6229 0.6285 8.7165
-1.9129 -4.7715 5.9065
-1.7329 0.5585 8.5365
-1.8429 1.0085 8.5365
-1.4929 0.6285 8.7665
-1.6929 0.2485 8.3565
-1.3029 0.6685 8.9865
-1.3029 1.0385 9.1065
-1.4529 -3.1715 6.9765
-1.4329 0.7685 8.8065
-1.8529 -3.0115 6.5765
-2.0029 -4.7915 5.5865
-1.9229 -4.5815 5.7465
-1.2729 -3.3515 7.0065
-1.9229 -4.5515 5.7165
-1.7929 -2.8515 6.6265
-1.4929 -3.0915 6.8465
-1.9629 -4.6515 5.5965
-1.5629 0.6285 8.4765
-1.3829 -3.1315 6.9265
-1.3429 -3.1315 6.9565
-1.2829 0.9985 8.9265
-1.9729 -4.7715 5.4665
-1.2529 0.6685 8.7665
-1.8829 -4.5815 5.6165
-1.7629 -4.7815 5.6565
-1.9929 -5.0215 5.2565
-0.5329 -6.6815 6.0665
-1.8529 -4.7415 5.4865
-1.1029 -6.2415 5.6165
-1.1729 0.8785 8.8265
-1.7929 -5.2015 5.2965
-1.8629 -5.2515 5.1565
-0.9129 -5.8815 5.9265
-0.4329 -6.6315 6.1065
-1.8329 -4.5615 5.4865
-1.8829 -5.0115 5.2165
-1.8129 -5.2215 5.1965
-0.9329 -5.7915 5.9065
-0.9829 -6.6415 5.4565
-1.1929 0.8085 8.6565
-1.7429 -4.6315 5.5065
-1.8429 -5.2215 5.1265
-1.7029 -4.4215 5.6165
-1.8129 -4.6615 5.3765
-1.8229 -5.1915 5.1265
-0.8429 -6.0615 5.8165
-0.7429 -6.7315 5.6065
-0.3929 -6.6915 6.0165
-1.2529 -5.8115 5.4365
-0.9729 -6.0515 5.6365
-0.9929 -6.1415 5.5665
-0.4629 -6.6615 5.9265
-0.4729 -6.6815 5.8965
-1.9229 -4.2015 5.4065
-1.3629 -4.7315 5.7765
-0.8029 -5.9315 5.8465
-0.9929 -6.6415 5.2965
-0.7529 -6.7315 5.5265
-1.9129 -3.1415 5.8765
-1.0129 -6.7115 5.1765
-0.7629 -6.6515 5.4865
-0.6929 -6.6515 5.5565
-1.1829 -5.8415 5.3565
-0.9329 -6.3415 5.4065
-0.9629 -6.5515 5.2665
-1.9229 -4.9115 4.9265
-1.8829 -4.9015 4.9765
-1.9929 -3.0915 5.6565
-2.0129 -4.1515 5.1465
-0.9529 -5.8615 5.5365
-0.9329 -6.0615 5.4565
-0.9729 -6.5415 5.1865
-0.5729 -6.5415 5.6365
-0.3229 -6.6815 5.8465
-0.3029 -6.6915 5.8665
-2.0229 -4.1515 5.0965
-0.4529 -5.7515 6.0965
-0.8129 -5.9415 5.6065
-0.9629 -6.0515 5.3965
-0.1929 -6.4215 6.0765
-1.6429 -0.3715 7.2265
-1.7729 -4.8215 5.0265
-0.7829 -5.8415 5.6565
-0.9929 -6.0515 5.3265
-0.5729 -6.4215 5.6165
-0.5029 -6.9015 5.4665
-1.3529 -5.1515 5.3065
-0.9529 -6.1715 5.2765
-0.6329 -6.5915 5.4365
-0.1729 -6.4615 6.0065
-1.1629 -4.9315 5.5865
-0.9429 -5.8315 5.4065
-0.4729 -5.6615 6.0165
-0.4329 -5.6615 6.0565
-1.1729 -4.8215 5.5865
-1.2929 -5.0915 5.3365
-0.4429 -6.0615 5.8265
-0.0929 -6.0315 6.2265
-0.5929 -6.5715 5.4265
-0.1929 -6.5115 5.8865
-0.3329 -6.6715 5.6665
-1.4029 -4.4015 5.4565
-1.6729 -4.9015 4.9265
-1.0629 -5.7315 5.2165
-0.6929 -5.8015 5.5965
-1.8029 -4.5515 4.9165
-1.2929 -5.1115 5.2265
-1.0829 -5.0115 5.5065
-0.7329 -5.9115 5.4765
-1.7829 -4.7315 4.8265
-1.7629 -4.9115 4.7665
-1.7829 -4.9415 4.7265
-0.5629 -5.7115 5.7265
-0.7729 -5.8515 5.4165
-1.0229 -6.4915 4.8565
-0.1129 -6.9715 5.6365
-1.3729 -4.8115 5.2165
-0.9729 -4.6215 5.7465
-1.2929 -4.8315 5.2865
-1.7229 -5.1615 4.6565
-1.6329 -5.1415 4.7665
0.0571 -5.3015 6.5765
-0.7729 -5.9115 5.3665
-0.2929 -5.9515 5.8765
-0.8929 -6.5015 4.9565
-0.0829 -6.4115 5.8965
-1.0329 -4.9115 5.4965
-0.4529 -6.6415 5.3565
-1.0929 -4.9215 5.4065
-0.3929 -6.1615 5.6065
-0.3329 -6.6215 5.4665
-0.7729 -6.8115 4.8865
-0.6629 -7.0615 4.8865
-0.7729 -7.1515 4.7365
-1.7729 -4.7415 4.7065
-1.6829 -4.7115 4.8165
-1.0829 -4.8815 5.4065
-0.1629 -7.2215 5.3465
-0.1629 -7.2415 5.3265
-1.5529 -4.5115 5.0165
-0.8229 -6.1315 5.0865
-0.7229 -6.1215 5.1965
-0.7229 -7.0715 4.7565
-0.4629 -5.6615 5.6665
-0.2629 -5.9415 5.7565
-0.3929 -6.0415 5.5765
-1.1429 -4.9315 5.2265
-0.4429 -5.8915 5.5465
-0.2929 -5.9415 5.6965
-1.6429 -1.1515 6.3965
-1.7929 -4.8315 4.5165
-1.1329 -4.8615 5.2365
-1.8629 -5.4715 4.1465
-0.0629 -6.2715 5.7665
-1.9529 -2.8715 5.2165
-1.6029 -4.9915 4.6165
-1.5529 -5.0015 4.6765
-1.0629 -4.8215 5.3065
-1.1429 -4.9915 5.1265
-0.2129 -4.9015 6.2065
-0.3829 -6.0715 5.4765
-0.8129 -6.3515 4.8665
0.0671 -6.2815 5.8665
-0.6129 -6.9915 4.7865
-1.1629 -4.8815 5.0965
-1.4529 -5.1815 4.6365
-0.4629 -5.6615 5.5065
-0.4729 -6.0615 5.3165
-0.3629 -6.4115 5.2765
-0.6029 -6.9815 4.7365
-1.5729 -2.5215 5.7065
-0.3629 -5.6115 5.6165
-0.7629 -6.2215 4.8865
0.0171 -6.9115 5.4265
-0.9129 -7.2515 4.2365
-1.5029 -4.9015 4.6465
-1.5829 -5.1315 4.4565
-0.7229 -6.0115 4.9965
0.1271 -6.3515 5.7765
0.0371 -6.5515 5.5865
-1.7629 -2.2615 5.5565
-1.7229 -2.3615 5.5565
-2.0129 -4.4415 4.2565
-0.1529 -6.5815 5.3265
0.2371 -6.5515 5.7565
-0.5829 -6.9015 4.6965
-1.6729 -0.9615 6.2165
-1.7629 -2.1615 5.5665
-1.8729 -5.0615 4.0865
-0.3829 -5.7715 5.4065
-0.2629 -6.2715 5.3065
-0.2629 -6.7315 5.0865
-0.8329 -5.6615 4.9265
-0.3429 -6.1215 5.2565
0.3971 -6.2615 5.9965
-0.3629 -6.6515 4.9865
-0.7029 -6.9415 4.4765
0.4371 -7.1215 5.6565
-1.9029 -2.7915 5.0465
-1.1429 -4.7015 4.9965
-1.0829 -4.7815 5.0265
-0.8529 -5.7015 4.8565
-0.1929 -5.8815 5.4965
-0.3429 -6.0515 5.2565
-0.0829 -6.7015 5.2265
-0.5429 -6.9815 4.6065
-0.1429 -7.0915 4.9865
0.0071 -7.2915 5.0565
-0.0129 -7.3115 5.0265
-1.5329 -4.9115 4.4365
-0.2329 -5.3215 5.6765
-0.3429 -5.6215 5.4165
-0.3429 -6.0315 5.2265
-0.1129 -6.1815 5.4065
0.0471 -6.4015 5.4765
-0.2629 -6.5515 5.0665
-1.8729 -2.7215 5.0365
-0.2929 -5.5715 5.4665
-0.6829 -5.9215 4.8665
-0.2529 -5.9515 5.3265
-0.3629 -6.4415 4.9765
0.4071 -6.3015 5.8865
-0.1529 -6.6215 5.1265
-0.5329 -6.8215 4.6065
-0.4729 -7.0315 4.5765
-0.3429 -7.0715 4.7065
-1.2329 -2.8015 5.6665
-2.0429 -4.9115 3.7965
-1.8529 -4.9315 3.9965
-0.9429 -4.8115 5.0565
-1.2829 -5.0315 4.5765
-0.1429 -5.2815 5.7265
-0.7029 -5.9115 4.8165
-0.5729 -6.4615 4.6965
-0.0229 -6.3515 5.3465
0.4871 -6.2615 5.9665
-0.6029 -6.8015 4.5065
-0.3029 -6.8415 4.8165
0.2971 -6.8515 5.4765
-0.7829 -5.8115 4.7265
-0.2629 -6.2615 5.1065
0.0971 -6.6915 5.2965
-0.7829 -7.2215 4.0765
-0.7729 -7.6115 3.9065
-0.2029 -7.8015 4.4565
-0.2729 -5.8915 5.2265
-0.1629 -6.6015 5.0065
-0.4729 -6.8715 4.5565
-0.1629 -6.9115 4.8765
-0.2029 -7.6215 4.4965
-0.2829 -7.7215 4.3665
-0.2029 -5.3615 5.5165
-0.0729 -6.8815 4.9465
0.1171 -7.2415 4.9865
-0.3329 -7.5815 4.3365
-0.2329 -7.6215 4.4365
-1.2029 -2.6415 5.6365
0.3371 -5.0815 6.1965
0.3171 -5.1115 6.1665
-0.2829 -6.0315 5.0765
0.1871 -7.5415 4.8965
-0.2629 -7.7215 4.3165
-1.7529 -5.0815 3.8665
-0.6629 -5.0015 5.0965
-0.8329 -7.0415 3.9765
-1.9329 -2.5815 4.7865
-1.6629 -4.4715 4.2065
-0.7029 -4.9415 5.0465
-0.5229 -5.5115 4.9865
-0.7829 -5.7615 4.5865
-0.3329 -5.6515 5.1365
0.1771 -6.6615 5.2265
0.3271 -7.9915 4.7765
-1.5829 -4.4215 4.2865
-0.6829 -5.8115 4.6365
-0.1829 -5.8115 5.1865
0.1271 -5.8715 5.4965
-0.3729 -6.0615 4.8665
0.2471 -6.6115 5.2965
-0.0529 -6.7815 4.8865
0.2671 -7.0515 5.1065
0.2071 -7.1215 5.0065
0.0771 -7.2815 4.7865
-0.0029 -7.3115 4.6865
-0.1029 -7.7115 4.3965
-0.0129 -7.7215 4.4965
-1.1229 -4.6015 4.6765
-1.6529 -5.3115 3.7665
-1.1429 -5.1015 4.4165
-1.1129 -5.1015 4.4565
0.1971 -5.1315 5.8865
-0.0729 -6.4515 4.9765
-0.1329 -6.6415 4.8165
-0.7329 -7.0715 3.9665
0.1571 -7.1515 4.9065
-0.8129 -4.3415 5.1065
-1.2129 -4.6115 4.5365
-1.9429 -5.1515 3.4965
-0.5129 -5.5415 4.8765
-0.1229 -5.5615 5.2965
-0.1829 -5.6515 5.1965
-0.1729 -6.1015 4.9965
0.2071 -6.1515 5.3965
-0.0929 -6.6015 4.8565
-0.3729 -6.8915 4.4065
0.2071 -7.1915 4.9065
-0.6029 -7.4915 3.8765
-0.2329 -7.5515 4.2565
-0.2229 -7.5715 4.2565
-0.1029 -7.9615 4.2165
-1.1929 -4.5215 4.5665
-1.6429 -5.2415 3.7465
0.3371 -5.4715 5.8165
0.0371 -5.8215 5.3165
-0.0729 -6.1115 5.0565
-0.1629 -6.7315 4.6765
0.6371 -6.9315 5.4665
-1.8729 -2.5015 4.7165
-2.0229 -5.5715 3.1365
0.4171 -5.4215 5.8865
-0.4629 -5.9215 4.6865
0.4271 -5.8815 5.6765
-0.3129 -6.4215 4.6265
-0.1929 -6.6915 4.6265
0.2971 -6.9715 5.0365
0.6271 -7.0215 5.3765
0.2371 -7.6315 4.6665
-0.1429 -7.9115 4.1165
-1.5529 -5.4015 3.6965
0.1771 -5.1615 5.6965
-0.2129 -5.5115 5.1165
-0.1029 -5.6415 5.1865
-0.1429 -6.3215 4.8165
-0.1729 -6.6515 4.6365
-0.1529 -6.6615 4.6565
0.2471 -7.1115 4.8865
-0.4929 -7.4615 3.9065
0.2371 -7.6315 4.6365
0.3271 -7.8415 4.6365
-0.0029 -7.9315 4.2365
0.0271 -7.9915 4.2365
-1.2429 -4.5415 4.3965
-1.8629 -5.1115 3.4465
-1.4929 -5.2415 3.8065
-0.2429 -5.4515 5.0765
-0.2729 -5.4815 5.0365
-0.6229 -5.6715 4.5565
-0.4229 -6.1015 4.5765
-0.3029 -6.9215 4.3265
-0.2629 -7.5415 4.0865
-0.0629 -7.6315 4.2665
0.3571 -7.7615 4.6765
-0.1029 -5.6815 5.0865
-0.1229 -5.8215 5.0065
-0.2229 -6.4715 4.5965
0.0471 -6.5215 4.8765
0.6371 -6.9415 5.3265
-1.5029 -4.4015 4.1065
-1.8929 -5.3515 3.2365
-0.1729 -5.4215 5.0965
0.3271 -5.7515 5.4865
-0.1729 -6.1715 4.7465
-0.1129 -6.1715 4.8165
-0.0629 -6.2015 4.8665
-0.2229 -6.8515 4.3765
0.2771 -6.9815 4.8765
-1.9629 -4.5315 3.5065
-0.1929 -5.5315 4.9865
0.0371 -6.4615 4.8165
0.5271 -6.3615 5.3965
-0.1829 -6.6215 4.4965
-0.2629 -6.7415 4.3565
-0.3529 -6.8015 4.2365
-0.0929 -7.5215 4.1765
0.3671 -7.5215 4.6865
-0.0929 -7.6815 4.1165
-1.5329 -4.3615 4.0165
-1.6429 -5.2915 3.4765
-1.5429 -5.3615 3.5565
-0.5429 -5.3215 4.6665
-0.0829 -6.5715 4.5965
-0.3229 -6.7315 4.2665
-0.6029 -7.1715 3.7465
0.4571 -7.7415 4.6565
-1.5129 -4.3015 4.0365
-1.7629 -5.5115 3.2065
-0.5729 -6.9215 3.8765
0.2271 -6.9715 4.7265
0.2771 -7.2015 4.6665
-0.1229 -7.3515 4.1665
0.2771 -7.3715 4.5865
-0.0229 -5.2715 5.1965
-0.2729 -5.5315 4.8065
-0.1829 -6.1615 4.6065
0.0971 -6.3715 4.8265
0.1471 -6.4515 4.8365
-0.1029 -6.8115 4.3965
-0.1829 -7.3515 4.0565
0.3871 -7.3815 4.6765
-0.8529 -4.3215 4.6765
-0.9829 -4.4815 4.4665
-1.9029 -5.5015 2.9865
-0.0429 -5.6015 4.9865
-0.6729 -6.1315 4.0465
0.2371 -6.4215 4.9165
-0.3629 -6.6315 4.1565
-0.1729 -6.6615 4.3565
0.6871 -6.8015 5.2365
-0.0929 -7.1815 4.1965
0.4371 -7.3615 4.7065
0.3971 -7.4915 4.5965
-0.0229 -7.6615 4.0565
0.0171 -5.5315 5.0465
-0.0829 -5.7015 4.8665
-0.1729 -5.8615 4.6965
0.4671 -6.1415 5.2665
-0.1129 -6.5615 4.4365
0.6471 -6.5015 5.2965
-0.5529 -7.0615 3.7265
-0.2429 -7.2415 3.9865
0.3971 -7.4515 4.5865
-0.1229 -7.5415 3.9765
-0.5729 -7.7315 3.3965
-0.1229 -5.9815 4.6665
-0.1329 -6.0015 4.6365
0.0471 -6.3215 4.6865
-0.3729 -6.5215 4.1265
-0.1129 -7.6315 3.9065
0.3071 -7.7715 4.3065
-0.6229 -4.6415 4.6965
0.3671 -6.0615 5.1265
0.4571 -6.1215 5.1965
-0.0029 -6.9515 4.3165
-0.0229 -7.4115 4.0865
-0.4829 -7.5415 3.5065
-1.2329 -2.8215 4.8365
-0.6029 -4.6115 4.7065
-0.5629 -5.7315 4.2165
0.4171 -5.5515 5.3865
-0.0629 -6.2415 4.5365
-0.0529 -6.2515 4.5465
-0.5629 -6.8115 3.7265
0.7171 -6.7115 5.1765
-0.3529 -7.0115 3.8665
-0.1829 -7.3315 3.9065
-0.0329 -7.3515 4.0665
0.4071 -7.5115 4.4765
0.5271 -7.5415 4.5965
-1.2829 -4.3715 4.0265
-0.5129 -6.1015 4.0765
0.4171 -5.9015 5.1965
0.0871 -6.2515 4.6565
0.4071 -7.4715 4.4665
0.4071 -7.5015 4.4365
0.1671 -7.6715 4.1065
-0.3729 -4.6715 4.8565
-0.4629 -4.7515 4.7165
-1.5929 -5.3515 3.2065
0.6271 -5.0115 5.7965
0.5271 -5.0615 5.6665
0.2471 -5.2415 5.2765
0.0871 -5.3915 5.0365
0.0271 -5.6215 4.8565
0.0071 -6.4415 4.4565
1.2771 -6.3015 5.9165
-0.4029 -4.6615 4.7965
-0.1829 -5.1315 4.8265
0.0271 -5.6315 4.8265
0.8671 -5.9315 5.6065
0.2471 -6.3215 4.7465
-0.1429 -6.5315 4.2165
0.8071 -6.3815 5.3365
0.2671 -6.8015 4.5465
-0.4329 -7.1615 3.6165
-0.2229 -5.1415 4.7365
0.0271 -6.0415 4.5965
0.9771 -5.9815 5.6765
0.1971 -6.7815 4.4465
0.2071 -6.9415 4.3865
-0.1829 -7.2415 3.8165
0.2071 -1.7815 6.7265
-1.9429 -5.4715 2.6765
-0.3429 -6.4315 3.9865
0.2571 -6.7015 4.5165
0.1571 -6.8915 4.3265
-0.4029 -7.3015 3.5065
0.3771 -7.6615 4.1965
0.1271 -5.2215 5.0165
-0.4529 -5.6315 4.1965
-0.0429 -5.5615 4.6765
0.0671 -6.5415 4.3465
-0.0829 -6.6515 4.1365
-0.1029 -6.6915 4.0965
0.3571 -6.6415 4.6165
-0.1729 -7.1515 3.7965
0.0471 -7.2615 3.9965
0.1271 -7.8215 3.8165
-0.2729 -5.0215 4.6465
0.0571 -5.3815 4.8365
-0.0529 -5.5515 4.6365
-0.0229 -5.9915 4.4665
0.0471 -6.3215 4.3965
1.0271 -6.1915 5.5265
-0.4629 -6.6615 3.6865
0.2371 -7.7015 3.9665
0.0971 -5.3415 4.8665
0.4971 -5.5015 5.2365
0.1171 -6.3015 4.4565
0.7771 -6.5915 5.0365
0.4071 -6.8515 4.5165
0.0371 -7.2115 3.9365
0.5671 -7.3415 4.4565
0.0371 -8.0215 3.5665
-1.1729 -2.5815 4.7165
-2.0029 -4.8715 2.7465
-0.3729 -4.6315 4.6465
0.4171 -5.3515 5.1865
0.0971 -5.5815 4.7365
0.8571 -5.5215 5.5865
0.5271 -6.7115 4.6865
0.4071 -7.2415 4.3065
-1.5729 -4.8115 3.2265
0.7071 -6.5415 4.9265
0.4671 -6.6115 4.6265
-0.3529 -7.1715 3.4665
0.2071 -7.2015 4.0665
0.2271 -7.6215 3.8965
0.1971 -7.6615 3.8465
-0.4529 -5.0815 4.2965
-0.3429 -5.4715 4.2265
-0.0329 -5.8215 4.4065
0.1171 -6.0615 4.4665
0.7971 -6.0515 5.2065
-0.2929 -6.3215 3.8965
0.2271 -6.5815 4.3465
-0.2029 -6.9215 3.7265
0.4071 -7.1515 4.2865
0.4471 -7.4915 4.1665
0.0471 -2.0315 6.2065
-0.5729 -4.7115 4.2965
-0.2829 -5.4415 4.2765
0.3371 -5.3415 5.0065
0.3671 -7.1615 4.1965
0.6971 -7.2415 4.5265
-0.1529 -5.1915 4.5165
0.1771 -6.2315 4.3865
0.8171 -6.4815 4.9665
0.3071 -6.6815 4.3165
0.7871 -6.6415 4.8665
-0.0029 -6.7815 3.9465
0.3971 -7.3815 4.1065
0.1571 -7.4915 3.7865
